ply
format ascii 1.0
element vertex 1307
property float x
property float y
property float z
property uchar red
property uchar green
property uchar blue
end_header
-0.51 0.17 1.17 130 142 192
-0.35 0.02 0.71 10 26 49
-0.33 0.13 0.89 7 18 40
-0.27 0.01 0.73 7 18 40
0.16 0.03 -0.00 156 173 225
-0.33 0.20 0.84 64 75 93
-0.31 0.16 0.68 66 77 99
-0.29 0.15 0.64 66 77 99
0.01 -0.02 0.07 154 172 222
0.01 -0.02 0.07 154 172 222
-0.12 -0.11 0.57 160 177 229
-0.35 0.20 0.82 71 82 100
-0.31 -0.03 0.70 13 17 46
-0.23 -0.06 0.58 155 171 222
-0.74 0.52 1.65 65 72 98
-0.22 -0.05 0.64 150 166 215
-0.25 -0.02 0.68 144 162 210
-0.71 0.50 1.59 62 72 97
-0.25 -0.06 0.73 156 172 221
-0.33 0.23 0.85 78 90 116
-0.31 0.17 0.83 73 83 92
-0.17 0.03 0.68 157 173 224
-0.23 -0.02 0.68 147 163 212
-0.22 -0.01 0.75 153 169 220
-0.30 0.22 0.85 80 88 111
-0.32 -0.03 0.67 157 173 224
-0.33 0.24 0.95 68 76 89
-0.20 -0.16 0.52 128 149 206
-0.15 0.07 0.57 148 165 211
-0.22 0.08 0.74 148 165 211
-0.17 -0.17 0.57 174 192 242
-0.29 -0.15 0.58 174 192 242
-0.31 0.17 0.85 77 88 90
-0.20 -0.03 0.68 154 170 219
-0.32 0.23 0.91 70 78 101
-0.32 0.23 0.91 70 78 101
-0.30 0.22 0.89 76 82 104
-0.38 0.35 1.09 68 75 101
-0.22 0.02 0.50 151 168 214
-0.22 0.06 0.80 147 164 210
-0.30 0.20 0.88 78 83 112
-0.30 0.20 0.88 78 83 112
-0.18 -0.08 0.57 155 171 222
0.09 0.01 -0.15 155 171 220
-0.16 0.08 0.63 148 165 211
-0.23 0.12 0.82 147 164 210
-0.24 0.04 0.78 147 164 210
-0.21 -0.06 0.49 157 173 224
-0.28 0.18 0.85 72 87 82
-0.18 -0.07 0.58 156 172 223
-0.17 0.01 0.42 153 170 216
-0.15 -0.04 0.40 155 171 220
-0.23 0.02 0.75 153 170 216
-0.28 0.18 0.92 111 75 89
-0.34 0.24 1.09 88 58 68
-0.24 0.07 0.75 133 150 194
-0.27 0.22 0.85 187 198 255
-0.25 0.17 0.77 118 79 100
-0.14 0.07 0.44 99 61 72
-0.29 0.28 1.00 82 88 104
-0.24 0.19 0.91 120 78 100
-0.27 0.27 0.98 85 87 112
-0.23 0.09 0.80 102 92 119
-0.22 0.02 0.72 112 96 123
-0.14 0.08 0.46 103 65 78
-0.10 -0.01 0.14 166 178 230
-0.26 0.28 0.97 81 91 103
-0.20 -0.08 0.62 105 90 121
-0.19 -0.11 0.59 110 90 115
0.04 -0.03 -0.24 112 94 118
-0.19 -0.12 0.58 109 87 110
-0.18 -0.14 0.56 112 91 110
-0.23 0.19 0.91 119 84 106
-0.14 0.08 0.46 104 66 77
-0.21 0.24 0.84 77 84 102
-0.26 0.26 0.98 68 61 77
-0.19 0.14 0.87 111 98 124
-0.23 0.25 0.93 78 83 103
-0.15 -0.10 0.37 123 98 119
0.23 0.08 -0.67 128 99 119
-0.11 0.07 0.53 68 46 48
0.02 0.01 0.41 119 100 120
-0.01 0.02 0.17 112 90 103
-0.20 -0.05 0.75 102 88 111
-0.23 0.16 0.88 118 75 92
-0.21 0.04 0.76 111 92 111
-0.10 0.02 0.45 111 92 111
-0.26 0.31 1.04 83 91 104
-0.15 0.05 0.68 112 68 83
0.26 -0.10 -1.29 112 68 83
-0.17 0.02 0.70 47 25 28
-0.02 -0.02 0.64 115 98 116
-0.13 0.08 0.76 126 84 98
-0.12 0.06 0.72 94 52 62
-0.00 0.03 0.45 124 100 116
0.02 -0.06 0.37 113 89 111
-0.20 0.11 0.82 83 50 61
-0.23 0.14 0.90 83 50 61
0.01 -0.04 0.40 127 100 115
-0.08 0.08 0.54 121 73 87
-0.08 0.13 0.44 66 73 92
-0.24 0.34 1.03 66 73 92
-0.13 -0.01 0.45 54 29 35
0.04 -0.04 -0.22 122 71 88
-0.19 0.11 0.82 88 52 64
-0.19 0.11 0.76 88 52 64
-0.23 0.23 0.99 134 89 110
-0.14 -0.06 0.62 36 15 14
-0.06 -0.04 0.31 115 81 98
-0.06 -0.04 0.31 115 81 98
-0.14 -0.06 0.70 47 17 25
-0.14 -0.02 0.72 106 59 69
-0.19 0.11 0.82 70 49 58
-0.18 0.11 0.76 70 49 58
-0.22 0.29 0.99 74 80 92
0.04 -0.01 -0.26 107 61 72
-0.12 0.02 0.54 99 52 58
-0.19 0.08 0.82 140 85 104
-0.12 0.19 0.75 77 82 101
-0.12 0.20 0.76 76 81 103
-0.18 0.11 0.76 64 47 55
-0.14 -0.07 0.70 83 41 51
-0.10 0.01 0.69 108 64 77
-0.13 0.00 0.77 108 64 77
-0.06 0.08 0.60 116 73 90
-0.11 0.18 0.74 83 84 102
-0.21 0.29 1.02 83 84 102
-0.21 0.32 1.06 67 68 86
-0.11 -0.01 0.55 102 56 67
-0.21 0.35 1.08 69 73 98
-0.18 0.15 0.85 121 73 87
-0.18 -0.06 0.69 124 81 100
-0.06 -0.00 0.56 61 34 13
-0.17 0.18 0.87 106 77 99
-0.10 -0.05 0.46 55 25 27
-0.15 -0.14 0.70 43 20 28
-0.17 -0.16 0.67 86 62 75
-0.01 0.06 0.40 56 33 17
-0.08 0.01 0.72 56 33 17
-0.16 0.08 0.83 123 81 101
-0.20 -0.16 0.63 108 83 112
0.07 0.02 0.20 109 90 110
-0.03 -0.16 0.52 109 90 110
0.01 -0.07 0.47 139 86 104
0.01 -0.08 0.46 139 86 104
-0.05 0.03 0.68 55 38 31
-0.19 0.28 1.11 125 82 102
-0.12 0.14 0.82 125 82 102
-0.01 0.08 0.18 123 80 100
-0.15 0.07 0.75 142 90 103
-0.12 -0.03 0.18 45 26 28
-0.11 0.01 0.43 113 67 78
-0.02 0.02 0.36 122 66 77
-0.01 0.04 0.33 122 68 81
-0.12 0.03 0.77 122 68 81
-0.20 0.29 1.21 123 75 91
-0.16 0.01 0.82 118 71 77
-0.16 0.01 0.77 118 71 77
-0.15 0.19 0.88 122 80 94
-0.15 0.14 0.90 113 67 78
-0.03 -0.02 0.12 36 15 14
0.01 -0.08 -0.15 71 78 97
0.05 -0.03 0.31 137 136 142
-0.05 -0.05 0.44 101 58 67
-0.17 0.41 1.22 81 87 101
0.03 0.05 0.44 82 42 51
-0.03 0.13 0.59 103 73 97
-0.03 0.09 0.66 129 82 102
-0.14 0.12 0.79 110 60 72
-0.05 0.15 0.61 75 81 103
-0.17 0.29 0.99 75 81 103
0.08 0.13 -0.30 120 97 126
0.07 0.02 0.30 115 93 116
0.01 -0.09 0.53 119 75 88
-0.05 0.12 0.60 78 66 78
-0.15 0.09 0.66 134 80 94
0.03 0.04 0.41 94 48 58
0.06 0.08 -0.18 94 48 58
-0.12 -0.01 0.80 117 63 76
-0.14 0.04 0.84 117 63 76
-0.01 0.04 0.52 117 63 76
-0.14 0.13 0.89 87 52 58
-0.04 0.06 0.38 78 82 93
-0.06 -0.04 0.30 98 58 69
0.05 -0.07 0.46 119 95 119
0.05 0.04 -0.01 130 106 128
-0.14 -0.09 0.51 39 17 19
-0.05 -0.10 0.61 56 21 27
-0.05 -0.10 0.61 56 21 27
-0.10 0.17 0.72 83 89 105
-0.15 0.37 1.27 115 73 87
-0.18 -0.06 0.72 43 16 21
-0.03 -0.07 0.40 43 16 21
-0.14 -0.03 0.79 41 20 19
-0.17 0.04 0.73 41 20 19
-0.14 0.36 1.19 75 52 58
0.02 -0.10 0.61 38 16 18
0.02 0.07 0.63 116 69 79
0.02 -0.36 -1.31 105 73 84
-0.10 0.05 0.81 132 84 106
0.02 0.08 -0.24 106 79 96
-0.08 -0.18 0.65 106 79 96
0.00 0.05 -0.19 120 103 122
-0.04 -0.21 0.62 124 99 121
-0.08 0.03 0.78 132 78 92
-0.01 -0.03 0.30 108 60 76
-0.09 0.04 0.58 123 79 96
0.02 0.02 0.42 84 48 52
-0.11 0.12 0.88 100 59 65
-0.07 -0.09 0.55 63 28 32
0.03 -0.06 0.34 119 94 115
-0.09 -0.13 0.49 119 94 115
0.05 -0.06 0.36 121 97 111
0.05 -0.06 0.36 121 97 111
-0.16 0.05 0.88 44 15 19
-0.19 -0.07 0.74 107 88 107
0.02 0.02 0.18 143 91 104
-0.05 0.03 0.73 125 83 97
0.01 0.12 0.58 74 58 68
-0.08 0.04 0.75 105 58 66
-0.11 0.13 0.89 112 64 76
0.07 -0.07 0.45 114 89 111
-0.00 -0.01 0.08 141 94 112
-0.07 -0.03 0.25 159 107 129
-0.00 0.10 0.25 109 63 76
-0.05 0.00 0.69 124 72 84
-0.06 -0.13 0.75 121 98 116
-0.06 -0.01 0.75 109 59 68
-0.01 -0.02 -0.40 112 61 70
-0.09 -0.13 0.37 106 81 100
0.06 -0.03 0.41 115 100 119
-0.06 -0.08 0.33 115 100 119
-0.02 0.01 0.37 119 71 85
-0.11 0.23 0.92 75 78 93
0.06 0.04 0.45 130 98 111
0.02 0.09 0.30 72 79 98
0.05 -0.03 0.29 122 95 112
0.06 0.03 0.20 102 81 96
0.08 0.01 0.53 114 89 110
0.03 -0.01 0.21 114 89 110
-0.12 0.08 0.73 112 81 99
-0.12 0.02 0.41 112 81 99
-0.12 0.13 0.92 129 81 97
-0.01 -0.17 0.64 108 89 111
-0.04 -0.12 0.62 115 92 112
0.07 0.01 0.55 123 96 115
0.07 0.00 0.56 123 96 115
0.05 -0.00 0.38 124 96 111
-0.02 -0.04 -0.01 91 54 62
-0.13 -0.14 0.45 85 61 77
0.11 -0.02 0.47 126 106 131
0.00 0.00 0.57 79 56 72
0.05 0.09 -0.06 117 95 108
0.08 -0.06 0.46 117 95 108
-0.08 -0.01 0.57 92 69 79
-0.06 -0.01 0.33 83 53 61
-0.00 -0.04 0.47 120 95 116
0.00 -0.01 0.08 120 95 116
-0.08 0.14 0.91 62 45 63
0.00 -0.00 0.07 111 90 107
-0.07 -0.04 0.81 88 70 84
-0.07 -0.04 0.81 88 70 84
0.04 0.00 0.14 80 63 73
0.07 -0.04 0.41 80 63 73
0.07 -0.03 0.33 127 104 124
-0.04 -0.08 0.27 127 104 124
-0.09 0.13 0.72 71 57 82
-0.02 -0.16 0.55 95 75 87
-0.05 -0.05 0.73 110 85 106
-0.08 0.16 0.90 92 83 112
-0.11 0.13 0.86 108 89 108
0.03 0.03 0.52 97 76 95
-0.01 -0.18 0.63 113 98 117
-0.13 -0.04 0.53 111 89 110
-0.02 -0.07 0.70 133 114 133
0.09 0.06 0.60 122 95 110
-0.02 0.04 0.61 112 93 115
-0.04 -0.07 0.04 71 79 92
-0.06 0.03 0.72 106 81 102
0.03 0.10 0.06 117 99 115
-0.00 0.06 0.03 88 80 93
-0.04 0.18 0.84 86 90 102
-0.07 0.35 1.09 86 90 102
-0.08 0.23 1.03 96 81 102
0.06 0.02 0.39 120 96 109
0.06 0.02 0.39 120 96 109
-0.06 0.15 0.89 120 101 121
0.06 -0.01 0.49 121 94 109
-0.02 -0.07 -0.04 72 78 92
-0.08 -0.15 -0.47 113 96 112
0.01 -0.17 0.63 116 103 123
-0.05 -0.23 0.67 89 67 88
0.08 0.11 0.47 98 92 118
0.12 -0.03 0.47 89 68 87
-0.05 -0.16 0.65 89 68 87
0.10 0.04 0.51 113 90 106
-0.01 0.03 0.75 124 102 115
0.11 -0.09 0.54 112 88 112
-0.07 0.04 0.76 128 104 118
0.04 -0.15 0.64 126 99 114
-0.10 0.01 0.82 121 100 117
-0.05 -0.07 0.54 120 93 110
0.11 0.01 0.52 118 96 109
0.07 -0.00 0.31 103 80 96
0.10 0.08 0.59 88 70 96
0.05 0.11 0.28 126 99 114
-0.04 -0.04 0.39 123 97 108
0.11 0.00 0.48 111 88 106
-0.01 -0.04 0.24 95 71 84
0.10 0.09 0.51 125 101 117
0.12 0.02 0.28 104 86 110
0.02 0.09 0.04 74 60 77
-0.03 -0.03 0.57 74 60 77
-0.10 0.00 0.71 103 82 101
0.01 -0.12 0.56 95 68 85
0.03 -0.04 0.68 127 100 109
-0.02 -0.05 0.25 99 73 84
0.04 0.05 0.16 100 92 105
0.01 0.01 0.73 124 99 118
0.09 0.03 0.43 116 92 105
0.01 -0.02 0.71 98 72 85
0.01 -0.02 0.71 98 72 85
-0.05 -0.09 0.31 99 74 93
-0.01 0.20 0.86 91 105 108
0.14 0.01 0.46 115 88 105
-0.07 -0.04 -0.20 134 109 130
0.05 0.00 0.19 99 78 97
0.06 0.08 0.22 144 162 236
0.00 0.24 1.13 105 84 101
0.02 0.01 0.06 107 83 96
0.09 -0.06 0.29 121 98 116
-0.10 -0.16 0.57 71 48 56
0.05 0.00 0.11 118 90 112
0.09 -0.04 0.25 118 90 112
0.06 -0.04 0.21 81 60 75
-0.12 -0.09 0.52 81 60 75
0.15 0.07 0.53 122 100 123
0.05 -0.09 0.39 128 103 122
0.05 -0.01 0.33 89 84 106
-0.11 -0.14 -0.15 134 114 139
0.04 0.08 0.15 66 50 61
-0.11 -0.16 -0.21 66 50 61
0.14 0.57 1.59 126 105 122
0.09 0.03 0.37 75 55 66
0.09 0.03 0.37 75 55 66
0.03 -0.06 0.32 56 40 50
0.01 -0.08 0.75 56 40 50
-0.00 0.26 0.97 60 58 72
0.00 -0.10 0.54 110 89 108
-0.02 -0.11 0.22 95 78 96
0.01 0.12 0.05 104 89 110
0.05 0.00 0.21 106 89 107
0.01 -0.05 0.17 97 80 98
-0.04 -0.08 -0.03 105 98 132
0.10 0.05 0.37 105 98 132
-0.17 -0.28 -0.46 66 68 80
-0.04 -0.09 0.59 94 78 91
0.06 -0.15 0.47 55 44 52
0.01 -0.03 0.71 106 91 110
0.01 0.05 -0.01 111 97 114
-0.08 -0.08 0.66 31 28 39
-0.01 0.06 -0.12 31 28 39
0.09 0.03 0.45 109 98 114
0.12 0.08 0.37 77 64 73
0.00 0.10 0.81 95 86 107
0.05 -0.01 0.67 88 76 96
0.05 -0.00 0.67 98 89 106
0.05 -0.17 0.61 75 72 89
0.08 -0.16 0.60 80 77 94
0.00 0.07 0.79 106 94 108
0.06 -0.16 0.62 88 84 109
0.03 -0.07 0.56 26 23 32
-0.07 -0.01 0.51 32 29 38
0.01 0.05 0.84 27 21 31
-0.09 -0.14 0.31 23 26 31
0.04 -0.07 0.19 47 53 75
-0.04 -0.08 0.19 57 59 82
-0.04 -0.08 0.19 57 59 82
0.00 0.21 0.87 100 94 104
-0.02 0.02 -0.05 81 90 123
-0.10 -0.12 0.03 81 90 123
0.05 0.41 1.18 61 59 64
-0.03 -0.09 0.07 61 59 64
-0.02 -0.02 0.51 46 48 71
-0.05 -0.07 0.24 46 48 71
0.07 -0.14 0.48 43 46 65
0.07 -0.14 0.48 41 40 58
-0.09 -0.03 -0.14 47 48 68
0.06 -0.06 0.25 26 31 50
0.11 0.04 0.58 42 41 46
0.05 -0.12 0.48 45 52 81
0.06 -0.04 0.26 54 61 90
-0.00 0.04 0.00 94 86 99
0.09 0.02 0.30 92 86 98
-0.07 -0.02 0.42 57 64 93
0.11 -0.18 0.56 148 163 204
-0.02 -0.15 0.47 134 149 192
0.07 -0.01 0.43 23 22 30
-0.01 0.09 0.02 23 22 30
0.11 -0.15 0.57 131 148 192
0.10 -0.07 0.60 138 152 191
0.10 -0.06 0.61 134 149 188
0.04 0.03 0.64 147 166 206
0.06 0.01 0.19 107 100 116
0.08 -0.17 0.49 161 176 219
0.06 0.02 0.55 69 60 81
0.11 -0.13 0.57 157 174 218
0.07 -0.06 0.59 153 170 214
0.01 -0.01 0.04 152 169 212
-0.02 -0.03 0.35 87 84 105
0.11 -0.05 0.31 157 174 218
-0.01 -0.15 0.50 157 174 218
0.71 1.42 3.21 105 103 124
0.03 -0.13 0.29 159 173 218
0.01 -0.10 0.30 152 169 215
0.24 0.59 1.80 144 159 202
-0.08 -0.12 0.62 158 175 219
-0.03 -0.01 -0.07 152 169 213
0.05 -0.05 0.27 141 158 201
0.15 -0.01 0.48 141 158 201
0.06 0.01 0.56 120 117 136
-0.13 -0.13 0.31 151 168 212
0.01 -0.22 0.67 149 166 210
-0.02 -0.05 -0.04 40 42 55
-0.02 -0.15 0.30 152 169 213
-0.01 -0.15 0.27 159 176 222
-0.00 -0.13 0.32 147 162 203
0.09 -0.11 0.30 148 165 208
-0.11 -0.11 0.13 148 165 208
0.10 -0.05 0.49 146 165 207
0.05 -0.01 0.68 146 165 207
0.08 0.08 0.68 84 91 109
0.02 0.14 0.91 142 159 202
0.08 -0.03 0.35 146 164 204
0.17 -0.04 0.33 150 167 211
0.00 -0.21 0.49 150 167 211
-0.11 -0.12 0.13 150 167 211
-0.09 -0.06 0.64 152 169 212
-0.13 -0.16 0.04 38 36 47
0.05 -0.09 0.59 142 159 202
0.05 -0.09 0.59 142 159 202
0.57 1.17 2.56 48 44 58
-0.01 0.07 0.01 48 44 58
-0.06 -0.07 0.04 157 174 220
0.20 0.07 0.47 139 158 200
0.03 0.12 0.82 139 158 200
0.05 -0.24 0.50 150 167 211
-0.05 -0.08 -0.02 142 159 202
0.03 0.04 0.04 151 168 211
-0.03 -0.09 0.09 145 164 207
-0.02 -0.02 -0.04 140 157 200
-0.11 -0.04 -0.11 158 175 219
0.06 0.06 0.07 158 175 219
0.65 1.31 2.77 76 86 88
-0.25 -0.25 -0.50 118 113 135
0.06 0.00 0.09 157 174 218
-0.16 -0.12 0.27 146 163 206
0.10 0.04 0.20 143 160 203
-0.07 -0.10 0.64 145 162 205
0.06 -0.09 0.62 136 154 194
-0.02 -0.00 -0.04 113 109 126
-0.04 -0.07 0.00 146 163 206
-0.00 -0.20 0.44 149 166 210
-0.00 -0.14 0.32 150 168 208
-0.03 -0.00 -0.05 153 170 214
0.10 -0.15 0.47 153 170 214
0.05 -0.13 0.59 152 171 214
-0.16 -0.10 0.28 144 161 204
-0.02 0.00 -0.04 146 163 206
0.01 -0.11 0.34 146 161 204
0.06 -0.06 0.54 144 165 208
0.06 -0.04 0.16 135 152 195
0.14 -0.04 0.39 138 157 199
-0.04 -0.09 -0.02 139 138 170
0.10 -0.02 0.24 133 150 193
0.09 -0.15 0.67 144 161 204
-0.02 -0.00 -0.05 138 155 198
0.13 -0.05 0.51 143 160 203
0.07 -0.06 0.45 143 160 203
0.13 0.02 0.58 69 81 95
0.18 -0.03 0.50 137 158 201
0.04 -0.07 0.36 133 156 200
0.07 -0.04 0.33 74 86 98
-0.00 -0.08 0.43 129 144 187
-0.02 -0.02 -0.03 110 105 125
-0.57 0.37 1.25 68 77 94
-1.06 0.50 2.20 74 92 80
-0.04 -0.03 0.27 155 173 223
-0.28 0.11 0.83 141 158 204
-0.13 0.05 0.30 73 79 95
-0.34 0.15 0.80 70 78 89
-0.14 -0.04 0.32 153 169 220
-0.02 -0.02 0.10 157 173 224
-0.09 -0.05 0.28 157 173 224
-0.31 -0.10 0.66 157 173 224
-0.18 -0.07 0.56 154 170 221
-0.68 0.51 1.60 66 76 101
-0.36 0.29 0.98 66 76 101
-0.41 0.37 1.10 70 82 106
-0.16 0.11 0.55 137 155 201
-0.02 0.01 0.01 146 163 209
0.29 -0.01 -0.77 146 163 209
-0.35 0.28 0.98 63 68 87
-0.14 -0.03 0.34 152 168 217
-0.29 -0.10 0.65 154 170 221
-0.30 0.16 0.79 55 63 76
-0.42 0.39 1.18 69 81 105
-0.31 0.02 0.73 148 165 211
-0.24 0.09 0.64 138 157 200
-0.28 -0.16 0.58 174 191 243
-0.10 -0.13 0.53 174 191 243
-0.04 -0.06 0.19 174 192 242
-0.29 -0.15 0.58 174 192 242
-0.32 0.22 0.88 76 87 107
-0.26 -0.13 0.77 156 172 223
-0.24 -0.10 0.60 156 172 223
-0.23 0.01 0.64 149 166 212
-0.30 0.21 0.85 64 70 92
-0.26 0.00 0.56 151 167 216
0.02 -0.00 -0.06 146 163 209
0.10 0.04 -0.33 153 169 218
-0.15 -0.04 0.57 153 169 218
-0.14 0.00 0.72 137 149 199
-0.28 0.21 0.84 68 75 93
-0.28 0.21 0.85 68 75 93
-0.24 0.03 0.75 146 163 209
0.07 0.00 -0.07 146 163 209
-0.25 -0.12 0.67 77 72 94
-0.25 -0.14 0.72 77 72 94
-0.20 0.19 0.58 73 84 106
-0.23 0.02 0.80 150 167 213
-0.28 0.17 0.81 49 66 56
-0.37 0.32 1.11 78 86 107
-0.23 -0.04 0.80 155 171 220
-0.24 -0.00 0.81 155 172 218
-0.20 0.03 0.79 153 170 216
-0.29 0.25 0.93 77 83 105
-0.23 -0.13 0.78 161 177 228
-0.23 -0.02 0.81 151 169 215
-0.27 0.24 0.96 113 74 92
-0.26 0.18 0.89 98 73 95
-0.29 0.27 1.01 86 90 119
-0.27 0.24 0.96 116 77 95
-0.03 0.02 0.07 111 72 91
-0.20 0.00 0.71 97 82 113
-0.20 -0.06 0.64 101 84 103
-0.18 -0.10 0.59 109 90 110
-0.24 0.24 0.92 116 75 93
-0.18 -0.15 0.55 116 98 122
-0.17 -0.05 0.36 122 97 116
-0.23 -0.07 0.52 122 97 116
-0.51 0.29 1.77 111 92 112
-0.10 0.00 0.13 120 103 122
-0.11 0.10 0.58 71 56 77
-0.25 0.28 0.98 77 84 102
-0.26 0.31 1.03 77 84 102
-0.17 -0.06 0.73 123 102 119
0.16 0.05 -0.55 123 102 119
0.07 0.07 -0.29 118 97 114
-0.15 0.10 0.79 75 64 80
-0.16 0.02 0.74 105 90 109
-0.23 0.16 0.88 118 75 92
-0.23 0.01 0.79 113 90 106
-0.24 0.23 0.96 104 69 91
-0.09 -0.10 0.50 119 92 109
-0.19 -0.15 0.73 119 92 109
-0.20 0.11 0.75 94 58 72
-0.12 0.07 0.43 121 74 92
-0.14 0.01 0.68 42 18 18
-0.12 -0.19 0.65 103 88 109
-0.14 -0.10 0.37 103 88 109
-0.13 -0.10 0.42 116 91 113
-0.11 -0.09 0.37 116 91 113
-0.08 -0.12 0.49 119 94 115
-0.15 0.22 0.72 73 78 100
-0.23 0.24 1.00 140 92 114
-0.18 0.17 0.88 140 92 114
-0.23 0.24 1.01 140 92 114
-0.05 0.06 0.37 135 88 108
-0.20 0.22 0.92 121 74 92
-0.08 0.06 0.59 111 60 67
-0.15 -0.05 0.58 101 80 95
-0.18 -0.02 0.82 91 58 67
0.00 0.03 0.25 47 21 24
-0.21 -0.10 0.74 33 12 17
-0.24 0.25 1.07 129 84 105
-0.23 0.23 0.99 129 84 105
-0.17 0.07 0.83 130 78 100
0.33 0.01 -1.29 120 68 81
-0.10 0.03 0.54 93 66 83
-0.09 0.05 0.32 126 79 97
0.00 0.04 0.17 43 17 18
0.21 0.02 -0.78 43 17 18
-0.15 -0.01 0.43 66 40 51
-0.08 -0.13 0.59 111 91 116
-0.16 0.08 0.80 130 83 101
-0.17 0.08 0.72 130 83 101
-0.09 -0.06 0.48 69 31 44
-0.18 0.10 0.81 121 78 98
-0.10 0.21 0.72 66 71 91
0.01 0.03 0.31 25 13 13
-0.20 -0.12 0.60 122 103 123
-0.20 0.30 1.07 89 62 69
-0.12 -0.15 0.66 74 44 52
-0.14 0.08 0.79 129 89 113
-0.17 0.09 0.84 129 89 113
-0.04 0.11 0.35 68 71 90
0.06 0.07 -0.23 139 96 116
0.09 0.07 -0.26 129 107 86
-0.15 0.08 0.71 123 78 99
-0.05 0.01 0.18 120 69 84
-0.20 -0.16 0.64 101 76 98
-0.01 0.05 0.56 118 72 83
0.04 0.11 -0.07 167 151 125
-0.11 -0.01 0.48 164 151 132
-0.01 0.03 0.39 164 151 132
-0.13 -0.20 0.71 114 85 107
-0.08 0.18 0.72 74 76 97
-0.04 0.06 0.54 120 77 97
0.02 -0.02 0.17 98 47 54
0.03 -0.04 0.35 98 47 54
-0.19 0.22 1.00 124 71 91
-0.15 0.08 0.73 124 77 95
-0.04 -0.05 0.51 23 9 9
-0.05 -0.05 0.44 23 9 9
-0.05 -0.05 0.44 23 9 9
-0.19 -0.08 0.48 24 18 20
-0.06 -0.17 0.66 111 58 64
-0.07 -0.05 0.23 83 48 54
-0.19 0.04 0.85 115 71 84
-0.15 0.04 0.84 114 64 76
-0.14 0.08 0.73 118 70 84
-0.14 -0.10 0.45 154 103 122
-0.03 0.05 0.31 108 69 88
-0.16 -0.01 0.78 93 48 55
-0.07 -0.04 0.37 107 61 74
-0.12 -0.01 0.80 117 63 76
-0.12 -0.01 0.80 117 63 76
-0.10 -0.18 0.62 123 101 124
-0.01 0.05 0.34 132 81 98
-0.12 0.07 0.68 132 81 98
-0.05 -0.02 0.34 115 67 79
-0.15 0.26 0.97 66 65 81
-0.16 0.03 0.70 119 67 79
0.02 0.02 0.13 119 67 79
0.01 0.08 0.50 121 65 76
-0.09 0.03 0.49 125 77 91
-0.14 0.48 1.29 72 77 99
-0.14 0.28 0.97 72 77 99
0.01 0.01 0.20 121 73 89
-0.09 -0.09 0.64 94 45 51
-0.01 0.16 0.64 74 79 101
-0.01 -0.07 -0.09 60 65 84
0.02 0.09 -0.01 118 71 87
-0.14 0.19 0.95 111 68 85
-0.15 -0.13 0.69 136 113 139
-0.10 0.16 0.82 120 77 96
-0.08 0.03 0.52 126 79 95
0.01 0.08 0.54 126 79 95
0.02 0.09 0.63 126 79 95
0.00 0.00 0.06 78 84 100
0.01 0.15 0.49 80 88 101
-0.10 0.04 0.73 129 78 97
-0.12 0.32 1.17 120 74 87
-0.08 0.11 0.78 120 74 87
-0.14 0.43 1.58 120 74 87
-0.14 -0.08 0.78 114 86 98
-0.00 0.00 0.09 127 80 96
0.02 -0.02 0.12 120 93 110
-0.11 -0.17 0.63 120 93 110
-0.12 0.07 0.81 158 107 124
-0.04 -0.13 0.62 128 105 121
0.04 0.03 0.31 134 100 116
-0.05 -0.21 0.64 115 93 116
-0.10 -0.01 0.83 44 14 16
-0.10 -0.01 0.82 44 14 16
0.04 0.07 -0.05 115 90 109
0.07 -0.03 0.50 115 90 109
0.01 -0.01 0.07 112 93 113
-0.06 -0.01 0.43 112 62 73
-0.14 0.03 0.78 112 60 72
-0.00 0.01 0.26 105 59 69
0.04 -0.02 0.51 113 88 109
0.03 0.03 0.08 113 88 109
-0.10 -0.02 0.29 96 70 81
-0.04 0.09 0.52 75 83 96
0.00 -0.17 0.52 128 105 125
0.09 0.01 0.59 118 91 110
-0.07 -0.03 0.68 115 90 109
-0.02 -0.07 0.28 106 88 110
0.06 0.10 0.50 108 81 96
-0.06 0.19 0.82 75 78 93
-0.08 0.29 1.00 75 78 93
0.10 -0.07 0.44 116 93 111
0.01 0.01 0.04 123 91 106
-0.07 0.31 1.03 68 74 90
0.07 0.08 0.05 129 102 121
0.07 0.08 0.05 129 102 121
-0.05 0.17 0.87 118 101 117
0.07 0.05 0.54 106 88 110
0.06 -0.03 0.49 128 104 118
0.09 0.04 0.55 108 80 92
-0.16 -0.13 0.52 118 98 126
-0.05 0.12 0.81 82 65 84
-0.01 0.12 0.12 89 69 94
-0.01 -0.20 0.59 116 89 106
0.09 0.10 0.54 89 69 94
-0.01 0.11 0.67 72 80 91
0.02 0.09 -0.13 99 80 99
0.01 -0.02 0.06 120 98 119
0.04 0.02 0.17 126 103 119
-0.05 -0.05 0.37 99 76 96
-0.05 0.09 0.83 123 102 117
0.09 0.09 0.53 99 100 128
0.05 -0.14 0.48 114 95 117
0.05 0.00 0.12 107 88 110
-0.05 0.09 0.81 115 94 111
0.02 -0.05 0.50 114 95 114
0.12 0.03 0.44 117 94 112
-0.07 -0.02 -0.13 119 94 113
-0.03 0.04 -0.19 110 89 106
-0.08 0.01 0.57 94 70 84
0.03 0.06 0.04 95 74 91
0.00 0.07 0.77 90 69 84
0.10 0.11 0.42 108 84 100
0.06 0.65 1.62 74 84 94
-0.02 -0.00 -0.09 130 100 112
-0.03 -0.05 0.25 130 100 112
-0.04 -0.02 0.30 79 81 93
0.06 0.07 0.24 11 15 26
0.06 0.07 0.24 11 15 26
0.06 0.07 0.24 17 21 30
0.01 -0.20 0.47 127 97 121
0.06 -0.17 0.45 125 97 119
-0.03 -0.00 0.73 125 104 123
0.09 -0.03 0.26 120 100 125
-0.05 -0.02 0.77 121 102 124
0.01 -0.02 0.05 119 95 117
0.06 -0.15 0.54 119 95 117
0.07 0.02 0.25 62 43 49
-0.02 -0.16 0.34 39 28 36
0.02 0.08 0.12 117 110 128
0.01 0.18 0.83 74 83 92
-0.01 0.13 0.70 74 83 92
-0.01 0.07 -0.13 41 41 43
0.06 -0.14 0.47 15 10 16
-0.10 -0.05 0.72 15 10 16
0.12 0.00 0.33 21 18 25
0.01 -0.13 0.57 21 18 25
-0.07 -0.02 0.50 23 21 26
0.03 0.01 0.61 61 57 71
-0.02 -0.04 -0.03 61 57 71
0.02 0.02 0.61 57 52 72
0.05 0.03 0.69 57 52 72
0.02 0.23 0.93 26 22 23
-0.05 -0.04 -0.04 48 50 71
-0.08 -0.09 0.36 45 51 73
-0.07 -0.08 0.37 76 89 123
0.07 -0.09 0.51 76 87 115
0.06 -0.04 0.53 80 93 125
-0.07 -0.03 0.42 71 82 114
-0.01 0.03 0.61 68 82 119
-0.02 -0.09 0.51 143 156 198
0.13 -0.09 0.40 154 171 215
0.16 -0.10 0.51 158 172 217
-0.03 -0.16 0.56 154 167 211
0.06 -0.00 0.51 69 78 87
-0.09 -0.13 0.44 152 169 212
-0.02 0.00 -0.04 154 169 212
0.02 0.02 0.04 148 165 209
-0.02 -0.04 0.02 145 160 201
-0.02 -0.04 0.02 145 160 201
0.05 -0.01 0.48 107 104 125
0.07 -0.11 0.27 157 174 220
0.07 0.30 1.04 109 106 127
0.04 0.17 0.95 145 164 206
0.05 0.00 0.11 145 164 206
0.03 0.02 0.60 136 153 196
0.09 0.01 0.22 143 160 203
0.02 0.04 0.54 75 84 99
0.10 -0.21 0.45 158 175 221
0.14 -0.11 0.37 150 167 211
-0.02 -0.21 0.61 150 167 211
0.15 -0.12 0.37 150 167 211
0.03 0.12 0.93 136 154 194
-0.04 -0.09 -0.05 73 84 86
-0.01 -0.16 0.63 149 166 209
0.02 -0.00 0.50 107 102 124
0.06 0.07 0.14 56 70 71
-0.00 -0.05 0.44 138 155 198
-0.35 0.16 0.80 68 77 94
-0.01 0.01 0.00 156 174 224
-0.30 0.11 0.82 142 160 206
-0.09 0.03 0.22 52 59 78
-0.29 -0.15 0.69 88 72 85
-0.31 0.13 0.72 75 92 84
-0.29 -0.04 0.70 150 166 215
-0.26 -0.03 0.49 154 170 221
-0.20 -0.09 0.61 154 170 221
0.28 0.02 -0.71 150 166 215
-0.19 0.04 0.68 150 166 215
-0.51 0.36 1.26 76 84 107
-0.30 0.12 0.88 140 158 204
-0.20 -0.12 0.54 172 186 235
-0.18 0.08 0.45 59 71 59
-0.27 0.19 0.84 76 93 83
-0.30 0.21 0.92 62 69 77
-1.39 0.85 3.88 62 69 77
-0.39 0.31 1.12 74 79 108
-0.48 0.33 1.46 106 68 83
-0.25 0.15 0.87 98 59 77
-0.25 0.10 0.79 30 43 60
-0.20 0.13 0.81 26 34 55
-0.23 0.06 0.75 26 34 55
-0.07 0.01 0.55 25 36 58
-0.07 0.01 0.55 25 36 58
-0.30 0.32 1.05 79 89 99
0.00 -0.04 0.38 28 43 66
0.00 -0.04 0.38 28 43 66
-0.12 0.12 0.42 68 75 91
-0.29 0.30 1.00 68 75 91
-0.22 0.07 0.77 96 84 106
-0.19 -0.03 0.67 98 81 97
-0.25 0.26 0.95 78 83 103
-0.18 -0.09 0.60 109 89 114
-0.17 -0.13 0.56 116 94 117
-0.15 0.01 0.74 109 95 118
0.10 0.04 -0.26 97 79 93
-0.24 -0.05 0.74 97 79 93
-0.27 -0.04 0.72 101 87 104
-0.20 0.23 0.87 84 63 78
-0.26 0.31 1.11 84 63 78
-0.06 0.07 0.52 113 89 115
-0.15 0.02 0.35 113 89 115
-0.15 -0.08 0.48 126 102 116
-0.19 0.23 0.88 81 87 101
-0.15 0.15 0.75 131 83 105
-0.24 0.22 0.96 131 83 105
-0.06 0.07 0.53 113 82 98
-0.16 0.22 0.80 85 87 110
-0.22 0.25 0.96 85 87 110
-0.22 -0.11 0.74 113 89 103
-0.18 -0.09 0.46 124 97 114
-0.23 0.29 1.00 73 75 98
-0.23 0.15 0.91 130 82 106
0.01 0.00 -0.03 52 26 27
-0.08 -0.09 0.63 96 60 74
-0.11 0.16 0.81 126 79 99
-0.03 0.08 0.42 110 64 75
-0.04 -0.09 0.34 123 99 123
-0.06 -0.13 0.46 123 99 123
-0.20 0.34 1.15 78 57 62
-0.14 0.09 0.83 128 85 104
-0.01 -0.00 0.11 177 162 143
-0.16 0.19 0.79 125 80 100
-0.04 -0.09 0.38 53 17 17
-0.16 -0.01 0.74 85 57 35
-0.06 0.13 0.39 73 70 81
0.02 -0.04 0.37 134 89 109
-0.00 -0.09 0.53 134 89 109
-0.20 0.32 1.03 70 74 99
-0.01 -0.04 0.51 113 65 79
0.05 0.07 -0.21 143 104 122
-0.22 -0.07 0.69 131 80 97
-0.09 -0.07 0.51 104 57 67
-0.13 -0.03 0.35 104 57 67
-0.13 -0.04 0.82 104 61 71
0.03 -0.00 0.10 110 83 100
-0.19 -0.06 0.73 28 18 19
-0.07 -0.00 0.27 102 51 56
-0.09 0.01 0.35 102 51 56
0.02 -0.09 0.53 131 96 116
-0.09 -0.00 0.52 55 25 25
0.03 0.05 -0.09 55 25 25
-0.04 0.15 0.66 71 77 103
-0.05 -0.13 0.38 128 104 128
-0.15 -0.13 0.74 119 94 113
-0.00 0.05 -0.17 123 99 121
-0.12 0.25 0.93 70 75 95
-0.15 0.09 0.88 109 61 73
-0.13 0.33 1.15 137 97 121
-0.02 0.03 0.31 137 97 121
0.04 0.04 0.52 36 20 20
-0.10 -0.03 0.10 36 20 20
0.04 0.04 0.52 36 20 20
0.04 -0.03 0.16 107 89 113
-0.06 -0.11 0.30 107 89 113
-0.03 0.18 0.38 73 80 99
-0.11 0.27 0.95 73 80 99
-0.16 -0.17 0.65 131 106 127
0.06 -0.16 0.50 146 126 153
-0.02 -0.22 0.61 104 81 107
-0.01 -0.17 0.64 111 83 105
-0.06 -0.12 0.75 119 100 122
-0.01 0.06 -0.18 110 88 109
0.05 0.04 0.26 92 71 88
0.08 0.07 0.44 117 94 110
-0.09 0.08 0.92 79 61 75
0.03 0.02 0.12 79 61 75
-0.05 -0.09 0.57 96 68 82
-0.03 -0.11 0.70 123 95 110
-0.01 0.15 0.78 84 91 101
0.05 0.09 -0.04 115 86 104
0.04 0.00 0.14 130 103 122
0.03 -0.09 0.51 116 92 106
0.04 -0.00 0.12 118 96 119
-0.02 -0.12 0.28 95 70 91
0.05 0.08 0.23 139 166 235
0.05 0.08 0.23 139 166 235
-0.07 0.04 0.82 95 72 90
0.05 0.08 0.18 113 89 105
-0.07 -0.10 -0.03 104 80 93
0.10 -0.09 0.35 120 95 116
0.10 -0.09 0.35 120 95 116
0.10 0.10 0.38 72 56 66
0.14 -0.01 0.41 69 49 58
0.01 -0.02 0.05 119 95 117
-0.02 0.01 -0.05 119 95 117
-0.03 -0.11 0.69 121 96 118
-0.09 -0.02 0.65 100 82 98
0.01 -0.06 0.20 100 82 98
0.14 0.03 0.51 130 112 136
0.13 0.05 0.57 118 96 117
0.12 0.06 0.46 118 96 117
0.08 -0.05 0.26 103 88 109
0.04 -0.18 0.44 114 92 113
0.12 -0.07 0.35 113 86 103
0.06 0.12 0.26 92 84 99
0.09 -0.03 0.31 93 72 89
0.12 -0.02 0.39 98 77 96
0.03 -0.17 0.54 51 41 49
0.12 -0.00 0.40 80 71 92
0.01 -0.08 0.71 52 37 44
0.04 0.28 1.04 145 164 207
0.15 -0.04 0.53 150 167 211
-0.04 -0.09 0.19 149 166 209
0.03 -0.16 0.62 153 168 211
-0.00 -0.09 0.17 153 168 211
0.03 -0.03 0.56 148 165 208
-0.02 -0.11 0.50 156 173 217
0.11 -0.00 0.60 144 167 209
0.08 -0.03 0.22 144 161 204
0.07 -0.11 0.26 158 175 221
0.16 -0.00 0.52 137 156 198
0.00 0.11 0.05 137 156 198
0.07 -0.10 0.46 147 164 207
0.18 -0.02 0.37 157 174 218
0.08 0.07 0.66 74 86 100
0.08 -0.03 0.17 154 171 215
0.11 0.01 0.28 137 152 193
0.28 0.57 1.62 137 154 197
-0.04 -0.11 0.15 152 169 213
0.14 -0.10 0.56 143 160 203
0.13 -0.01 0.58 146 141 164
0.11 0.01 0.26 79 88 85
0.24 -0.08 0.44 146 163 207
-0.02 -0.01 -0.05 139 158 201
-0.04 -0.10 -0.03 119 114 134
-0.01 -0.12 0.42 133 147 192
-0.01 -0.11 0.42 132 151 191
-0.34 0.21 0.83 77 90 109
-0.34 0.25 0.89 77 88 110
-0.29 -0.15 0.69 82 60 72
-0.33 -0.08 0.68 154 170 221
-0.34 0.22 0.87 72 82 107
-0.35 0.26 0.94 72 82 107
-0.17 -0.02 0.63 156 172 223
-0.15 -0.03 0.65 155 173 223
-0.25 -0.12 0.73 155 173 223
-0.05 0.02 0.10 143 160 206
-0.31 0.14 0.75 60 78 64
-0.16 -0.02 0.39 152 168 219
-0.14 -0.02 0.59 154 170 219
-0.28 0.02 0.68 149 166 212
-0.31 0.24 0.96 74 79 108
-0.26 0.06 0.75 144 162 208
-0.20 0.09 0.57 92 50 52
-0.20 0.09 0.57 92 50 52
-0.21 0.16 0.64 114 82 105
-0.26 0.19 0.90 99 73 98
-0.22 0.05 0.76 102 92 117
-0.14 0.09 0.48 113 71 85
-0.17 -0.11 0.59 103 84 106
-0.12 0.02 0.37 113 99 125
-0.26 0.22 0.95 102 74 97
-0.30 0.36 1.19 77 84 102
-0.09 -0.00 0.10 127 99 121
-0.25 0.21 0.94 133 84 105
-0.08 -0.11 0.60 90 73 89
-0.36 0.46 1.60 77 68 87
-0.17 -0.01 0.81 144 105 123
-0.06 0.07 0.53 113 82 98
-0.16 0.05 0.76 93 46 54
-0.15 0.18 0.85 131 83 105
0.00 -0.00 -0.02 83 92 101
0.00 0.00 0.07 118 66 78
-0.05 0.00 0.67 109 55 68
-0.09 -0.05 0.62 113 69 84
-0.00 -0.00 0.36 110 63 73
-0.12 0.00 0.59 65 29 31
-0.06 -0.03 0.48 40 20 22
-0.12 0.03 0.33 171 160 156
-0.07 0.00 0.72 46 27 23
-0.08 -0.03 0.21 126 70 83
0.08 0.08 -0.14 126 70 83
-0.15 -0.12 0.67 103 64 82
0.04 0.03 -0.47 41 20 19
-0.13 -0.04 0.82 107 64 74
-0.09 0.18 0.79 84 90 106
-0.04 0.17 0.59 84 90 106
-0.15 0.23 0.91 84 90 106
-0.01 -0.10 0.63 77 47 55
-0.01 -0.01 0.24 111 63 77
-0.08 -0.01 0.54 127 73 89
-0.01 -0.08 0.61 57 28 33
-0.08 -0.06 0.59 56 30 31
-0.14 -0.07 0.77 107 76 92
-0.14 0.05 0.76 66 31 35
0.06 -0.04 0.54 109 84 103
-0.13 -0.12 0.70 109 84 103
-0.09 -0.07 0.49 125 98 115
-0.11 0.24 0.97 111 68 85
-0.11 -0.05 0.67 110 81 99
-0.01 -0.13 0.36 137 116 135
-0.05 -0.12 -0.20 109 88 105
0.02 0.04 0.26 70 52 66
0.00 -0.08 0.52 117 90 107
-0.07 0.08 0.77 109 86 94
-0.01 -0.02 0.66 112 88 102
0.07 0.08 0.02 117 92 111
0.07 -0.04 0.30 117 92 111
-0.01 0.04 -0.12 122 99 119
0.08 -0.09 0.55 108 86 107
-0.06 0.08 0.87 128 102 115
0.04 0.07 0.16 125 99 110
-0.00 -0.02 0.20 115 91 107
0.09 -0.07 0.57 106 83 101
-0.03 -0.05 0.28 107 84 102
-0.08 -0.14 -0.44 116 101 120
0.04 0.08 -0.01 116 99 118
-0.04 -0.16 0.41 105 82 108
-0.02 -0.23 0.66 105 82 108
-0.01 -0.24 0.65 101 78 98
-0.01 -0.21 0.56 101 78 98
-0.06 -0.08 0.36 102 79 99
0.05 -0.00 0.19 102 79 99
-0.02 0.23 1.06 92 68 81
0.03 -0.03 0.30 92 68 81
0.12 0.03 0.52 92 68 81
0.03 -0.03 0.53 112 86 97
0.06 0.04 0.45 72 82 91
0.06 0.08 0.22 150 168 240
0.07 0.08 0.26 150 168 240
-0.14 -0.11 0.55 69 46 54
0.01 -0.01 0.37 127 116 130
-0.02 0.03 -0.06 127 116 130
-0.03 -0.11 0.69 121 96 118
0.04 -0.05 0.58 136 118 134
-0.05 -0.06 0.06 50 34 44
0.05 -0.12 0.53 50 34 44
0.04 0.01 0.14 112 100 120
-0.02 0.17 0.93 131 116 135
-0.05 -0.02 0.74 75 59 69
0.05 -0.09 0.55 75 59 69
0.04 -0.16 0.46 111 84 99
-0.03 -0.08 0.16 120 99 118
0.11 -0.16 0.52 51 40 46
0.02 -0.05 0.72 86 76 101
-0.16 -0.14 -0.24 115 93 116
0.04 -0.00 0.18 98 87 101
-0.21 -0.29 -0.62 15 13 16
-0.05 -0.04 -0.01 55 61 77
-0.08 -0.09 0.37 65 71 105
-0.02 0.00 0.59 59 68 97
-0.04 -0.09 -0.05 128 120 144
0.03 -0.18 0.70 148 163 202
0.06 -0.16 0.49 148 163 202
0.06 0.00 0.12 148 163 202
0.21 0.03 0.48 152 169 213
0.11 -0.00 0.60 144 167 209
0.08 -0.04 0.51 143 160 203
0.02 -0.04 0.46 148 169 214
0.13 0.09 0.31 148 169 214
0.10 -0.14 0.59 147 164 207
-0.04 -0.10 -0.06 122 117 139
-0.00 -0.11 0.31 144 158 197
-0.03 -0.09 0.12 156 173 217
-0.01 -0.04 0.63 139 157 197
0.07 -0.05 0.46 146 164 210
0.20 0.09 0.43 79 88 87
-0.03 -0.21 0.42 147 164 208
0.15 -0.03 0.41 136 157 200
-0.23 -0.03 0.60 38 45 64
-0.26 -0.01 0.51 38 45 64
-0.31 -0.12 0.69 156 172 223
-0.17 -0.02 0.66 157 173 224
-0.30 0.07 0.75 146 163 209
-0.16 0.02 0.69 156 172 223
-0.25 -0.08 0.62 156 172 223
-0.05 0.02 0.10 145 162 208
-0.19 0.03 0.73 148 165 211
-0.27 0.01 0.67 151 168 214
-0.26 0.14 0.84 132 146 193
-0.28 0.13 0.85 132 146 193
-0.25 0.12 0.88 138 155 199
-0.28 0.18 0.91 114 72 94
-0.20 0.00 0.70 89 79 104
-0.19 -0.05 0.64 108 88 115
-0.16 -0.17 0.53 128 99 119
0.16 -0.02 -0.48 78 54 68
-0.26 0.20 0.96 126 79 99
-0.17 0.16 0.71 161 116 137
-0.36 0.53 1.62 73 79 101
-0.15 0.06 0.77 129 81 97
-0.14 -0.08 0.76 45 19 20
-0.14 -0.08 0.76 45 19 20
-0.18 -0.12 0.76 34 20 20
-0.07 -0.13 0.66 104 85 104
0.05 0.04 0.01 35 16 20
-0.11 -0.09 0.66 35 16 20
-0.08 0.13 0.69 91 51 59
-0.24 -0.07 0.72 111 68 78
-0.00 0.04 0.36 44 19 22
-0.10 0.01 0.64 119 113 97
-0.13 -0.08 0.57 45 25 26
-0.12 -0.10 0.68 45 25 26
0.01 0.03 0.32 44 23 22
-0.02 0.07 0.45 143 88 107
-0.12 0.05 0.81 143 88 107
-0.04 0.14 0.63 122 83 104
-0.13 -0.05 0.81 46 21 24
-0.03 0.10 0.67 134 91 110
-0.04 -0.03 0.56 101 65 79
-0.14 0.17 0.93 74 44 52
-0.01 0.11 0.65 143 103 114
-0.02 0.14 0.68 128 90 111
-0.17 0.40 1.45 128 90 111
-0.07 -0.04 0.31 150 105 125
-0.10 0.14 0.85 97 70 89
0.02 0.00 0.46 134 79 98
0.02 0.11 0.55 134 92 106
-0.02 -0.01 0.19 110 70 94
-0.07 0.19 0.84 78 86 97
-0.09 0.12 0.85 72 40 45
0.01 -0.06 0.40 112 87 108
-0.10 -0.05 0.24 112 87 108
-0.09 0.20 0.77 73 79 101
-0.05 -0.23 0.70 109 91 107
0.05 0.02 0.42 117 91 104
0.04 0.08 0.04 124 96 111
-0.11 -0.04 0.77 124 96 111
0.07 -0.02 0.23 107 88 107
-0.03 -0.09 0.23 107 88 107
-0.06 0.20 0.92 127 122 144
0.11 -0.06 0.44 121 99 120
-0.08 -0.13 -0.41 117 104 121
-0.04 0.20 0.90 111 108 135
0.01 0.05 -0.03 109 88 103
0.05 0.01 0.21 118 96 109
-0.10 -0.10 0.39 120 93 112
-0.09 -0.08 0.33 118 93 114
0.06 -0.07 0.47 116 94 117
0.01 0.30 1.11 132 115 133
0.03 -0.18 0.65 110 87 107
0.03 0.11 0.01 114 96 122
0.11 -0.02 0.39 114 96 122
0.12 -0.18 0.50 41 29 39
0.17 0.12 0.54 83 91 104
-0.02 -0.03 0.56 82 89 117
0.04 -0.01 0.46 109 110 128
-0.02 -0.05 -0.04 36 36 44
0.13 0.05 0.37 36 36 44
0.19 -0.05 0.40 154 169 212
0.08 -0.20 0.56 150 167 210
-0.06 -0.07 0.65 148 165 208
-0.04 -0.11 0.20 148 165 208
0.13 -0.03 0.35 148 163 206
0.08 0.07 0.66 99 110 132
-0.02 -0.20 0.44 146 165 208
0.17 -0.06 0.31 36 47 69
0.17 -0.06 0.31 36 47 69
-0.26 -0.02 0.68 141 158 204
-0.17 0.01 0.68 153 169 218
0.42 -0.06 -1.21 148 165 211
-0.10 0.05 0.28 21 49 27
-0.28 0.23 0.95 105 69 83
-0.21 0.12 0.85 139 153 198
-0.15 0.07 0.56 139 153 198
-0.21 0.05 0.76 106 94 118
-0.18 0.17 0.82 88 57 63
-0.18 0.17 0.82 88 57 63
-0.12 -0.05 0.66 111 93 109
-0.09 -0.00 0.72 79 44 48
-0.20 -0.15 0.67 109 94 113
-0.02 -0.08 0.57 37 17 19
0.11 -0.00 -0.65 55 27 26
-0.06 0.12 0.70 138 85 101
-0.20 0.27 1.06 153 105 131
-0.07 0.08 0.48 153 105 131
-0.08 0.19 0.74 72 77 96
-0.20 0.34 1.07 72 77 96
-0.16 0.11 0.88 140 93 113
-0.05 0.11 0.62 126 79 95
-0.15 0.20 0.88 72 71 79
-0.19 0.31 1.05 79 86 96
-0.08 -0.03 0.28 114 61 71
-0.15 0.21 0.93 46 43 50
-0.01 0.09 0.44 37 17 16
-0.12 0.18 0.84 76 78 90
-0.00 0.06 0.34 113 65 77
-0.15 -0.14 0.68 133 114 133
0.00 0.09 0.65 135 80 99
0.03 -0.08 0.54 109 86 104
0.01 0.09 0.57 75 46 50
-0.14 -0.08 0.73 125 95 107
0.04 0.02 0.36 138 109 127
-0.12 -0.00 0.80 114 93 112
0.02 0.82 2.18 73 80 96
0.06 0.07 0.48 125 95 105
0.04 0.12 0.35 65 68 83
-0.02 -0.11 0.45 124 102 115
0.00 -0.11 0.46 124 102 115
-0.02 0.02 0.70 29 65 161
0.02 0.04 0.16 106 83 103
-0.10 -0.16 -0.49 60 67 75
0.04 0.09 0.08 116 92 106
-0.06 -0.06 0.40 116 92 106
0.04 -0.12 0.48 113 90 110
0.13 -0.02 0.47 113 90 110
0.04 -0.01 0.15 102 78 94
0.10 0.07 0.37 108 84 97
0.08 -0.00 0.42 108 84 97
0.15 -0.01 0.49 126 98 113
0.19 -0.06 0.49 115 87 110
0.04 0.02 0.16 122 102 114
0.11 0.05 0.53 98 90 105
-0.03 0.15 0.85 57 49 64
-0.02 -0.04 -0.02 66 62 77
-0.09 -0.14 -0.10 145 134 151
0.09 -0.06 0.62 142 159 202
0.01 -0.01 0.75 154 171 214
0.01 -0.01 0.57 140 157 200
-0.34 0.19 0.83 75 83 104
-0.28 0.22 0.93 89 59 69
-0.30 0.25 0.97 89 59 69
-0.24 0.24 0.94 96 62 76
-0.13 0.06 0.72 106 88 104
-0.25 0.34 1.12 81 86 106
-0.21 -0.04 0.62 117 91 104
-0.21 -0.04 0.62 117 91 104
0.02 0.02 -0.13 93 57 69
-0.01 0.00 0.12 113 99 90
-0.23 -0.09 0.71 129 72 91
-0.01 0.09 0.44 39 19 18
0.03 0.00 0.14 36 16 17
-0.00 -0.07 0.42 133 94 112
-0.08 -0.00 0.41 110 61 67
-0.13 0.09 0.89 145 91 105
-0.00 -0.01 0.43 104 80 94
-0.09 0.04 0.87 104 80 94
0.04 0.03 0.45 96 77 97
0.10 0.04 0.51 119 95 109
-0.04 0.07 0.79 117 94 110
0.10 0.04 0.54 95 77 89
0.10 -0.21 0.56 153 170 214
0.06 -0.01 0.45 39 36 43
-0.23 -0.08 0.77 154 170 219
-0.19 0.06 0.60 90 61 66
-0.20 0.11 0.81 126 79 97
-0.10 0.13 0.80 127 74 92
-0.22 0.57 1.72 77 83 97
-0.10 -0.09 0.62 56 26 24
0.02 -0.03 0.34 56 26 24
-0.03 -0.12 0.64 120 86 103
-0.12 0.02 0.84 58 29 31
-0.10 -0.01 0.81 58 29 31
-0.11 0.03 0.85 100 73 92
-0.01 -0.06 0.53 92 71 88
0.12 0.05 0.42 6 5 10
0.11 0.04 0.38 6 5 10
-0.00 0.06 0.03 6 5 10
0.01 -0.02 0.58 139 156 199
0.02 0.05 0.69 135 154 197
-0.24 -0.20 0.65 136 134 171
0.02 -0.03 -0.52 98 48 59
-0.16 -0.15 0.67 126 101 123
-0.06 -0.11 -0.19 114 102 122
-0.08 -0.04 0.30 22 25 44
-0.18 0.08 0.84 120 78 98
-0.19 0.12 0.92 97 70 87
0.01 0.15 0.57 61 64 81
-0.12 -0.03 0.49 108 71 89
0.04 0.10 0.07 108 71 89
-0.03 -0.12 0.38 112 88 104
0.09 -0.00 0.31 112 88 104
-0.05 0.09 0.87 121 99 120
-0.06 -0.12 0.57 118 89 109
-0.08 0.06 0.69 116 95 104
-0.09 -0.03 -0.12 32 30 43
0.02 -0.03 0.49 97 110 144
-0.15 0.12 0.93 122 80 100
-0.05 0.06 0.72 66 35 41
-0.01 -0.05 0.55 69 76 104
-0.12 0.01 0.41 62 30 31
0.14 -0.02 0.54 147 168 213
0.06 0.12 0.17 147 168 213
-0.26 0.06 0.84 148 165 211
