ply
format ascii 1.0
element vertex 1742
property float x
property float y
property float z
property uchar red
property uchar green
property uchar blue
end_header
-0.52 0.33 -2.63 55 41 32
-0.31 0.12 -1.26 87 62 40
-0.29 0.29 -1.04 103 116 73
-0.29 0.25 -0.99 63 84 51
-0.24 0.18 -0.77 63 84 51
-0.23 0.17 -0.77 47 73 26
-0.17 -0.01 -0.62 52 35 27
-0.17 -0.01 -0.62 52 35 27
-0.35 0.03 -2.45 75 48 37
-0.08 -0.04 -0.31 75 48 37
0.98 1.06 6.39 74 54 45
-0.16 -0.07 -0.21 96 110 49
-0.27 0.20 -0.88 95 90 86
-0.35 0.30 -1.52 230 228 207
-0.32 0.17 -1.15 145 118 88
-0.02 0.06 -0.16 146 132 123
-0.36 0.10 -1.28 146 132 123
-3.57 -6.70 -28.50 149 139 127
-0.32 0.33 -1.87 108 89 75
-0.17 0.01 -0.61 57 39 39
-0.09 0.04 -0.35 93 91 66
-0.30 0.24 -1.04 45 60 31
-0.13 0.00 -0.43 162 137 106
-0.13 0.00 -0.43 162 137 106
-0.29 -0.15 -1.64 63 43 32
-0.23 -0.07 -0.39 63 43 32
-0.32 0.31 -1.22 134 109 87
0.43 -0.32 2.66 53 40 31
0.24 0.87 2.75 184 169 148
-0.29 -0.14 -0.58 184 169 148
-0.24 0.19 -0.80 76 91 50
-0.34 0.66 -2.11 83 96 43
-0.29 0.26 -1.03 71 80 33
-8.51 1.03 -45.11 59 48 30
-1.62 2.21 -9.56 63 46 39
-0.29 0.06 -0.90 55 38 28
-0.34 0.51 -1.53 254 251 246
-0.20 0.12 -0.66 255 242 233
-0.29 0.09 -0.91 35 27 24
-0.26 0.13 -0.84 80 61 46
-0.30 -0.02 -1.19 145 121 93
-0.30 0.24 -1.51 40 26 15
-0.22 0.21 -0.60 177 186 129
-0.29 0.28 -1.54 142 120 99
-0.30 0.18 -1.02 142 120 99
-0.10 -0.06 -0.43 58 35 21
-0.30 0.27 -0.96 62 66 39
-0.11 -0.02 -0.20 132 108 82
3.77 2.93 12.35 58 40 30
-0.31 -0.26 -2.15 124 94 68
-0.06 -0.09 -0.27 124 94 68
-0.28 0.23 -0.91 68 90 26
-0.28 0.22 -0.89 104 97 69
-0.61 -0.40 -4.13 47 34 18
-3.50 -5.76 -35.12 55 40 35
-0.09 -0.05 -0.23 44 34 25
-0.33 0.10 -1.08 60 47 41
-0.31 -0.06 -0.77 66 45 28
1.09 -1.25 5.73 46 70 38
-0.30 0.24 -1.01 46 70 38
-0.33 0.12 -1.72 56 44 32
-0.10 -0.10 -0.33 75 50 30
-0.29 0.12 -0.93 58 44 35
-0.93 -0.47 -2.83 54 36 22
-0.33 0.38 -1.42 75 89 28
-0.29 0.20 -0.94 77 62 43
-0.45 0.05 -1.46 146 127 95
-0.37 0.07 -1.19 146 127 95
-0.41 0.02 -1.32 39 31 20
-0.12 0.07 -0.45 191 208 76
-0.49 0.59 -2.35 191 208 76
-0.40 0.46 -2.12 246 244 229
-0.27 0.15 -0.86 138 129 100
-0.45 0.03 -1.77 153 138 117
-0.58 -0.16 -1.80 95 77 55
-0.12 -0.11 -0.32 54 36 24
-0.22 0.04 -0.55 135 118 88
-0.00 -0.06 0.01 68 87 31
-0.29 0.13 -0.94 153 146 127
-3.66 -3.75 -15.19 59 48 30
-0.30 0.25 -1.03 146 171 53
-0.29 0.45 -1.63 146 171 53
-0.29 0.02 -0.81 107 87 63
-0.21 -0.05 -0.60 107 87 63
-0.30 0.08 -1.16 54 40 31
-0.29 -0.02 -0.79 69 52 32
-0.30 0.02 -1.06 48 30 16
-0.18 0.23 -0.60 61 72 32
-0.30 0.28 -1.06 85 92 51
-0.28 0.05 -0.82 59 46 30
-0.34 -0.00 -1.70 154 148 126
-0.27 -0.03 -0.70 83 67 52
-0.28 0.47 -1.46 55 80 40
-0.31 0.25 -1.03 55 80 40
9.83 -16.19 40.34 113 126 56
-0.21 0.24 -0.70 55 66 34
-0.29 -0.06 -0.57 48 32 19
-0.21 -0.01 -0.48 56 46 34
-0.12 -0.05 -0.43 55 49 35
-0.30 0.24 -0.94 49 65 54
-0.29 0.45 -1.61 49 65 54
-0.32 0.51 -1.50 58 65 49
-0.24 -0.04 -0.63 56 48 35
-0.29 0.24 -0.90 56 65 34
-0.28 0.17 -0.90 157 150 131
-0.24 -0.03 -0.64 149 146 137
0.28 -0.16 1.42 154 146 133
0.34 0.37 1.59 56 53 34
-0.32 -0.08 -1.12 33 23 13
0.45 1.03 3.52 33 23 13
-0.46 0.33 -2.51 160 153 143
-0.76 -0.69 -4.20 58 52 36
-0.21 -0.08 -0.56 143 143 133
-0.50 0.13 -2.07 160 153 147
-0.20 0.14 -0.66 160 153 147
-0.09 -0.05 -0.10 55 49 37
-0.33 0.49 -1.77 163 169 181
-0.29 0.24 -0.91 163 169 181
-0.32 0.19 -1.58 157 151 139
-0.04 -0.00 -0.18 53 61 37
-0.27 0.24 -0.78 67 72 40
-0.28 -0.05 -0.66 132 132 120
-0.29 -0.07 -0.62 117 123 111
0.09 0.09 0.09 26 27 13
-0.31 0.12 -1.70 156 147 140
-0.31 0.49 -1.60 128 138 114
-0.30 0.38 -1.47 61 76 33
-0.32 0.34 -1.43 66 80 55
-0.32 0.25 -1.17 60 69 40
-0.04 -0.04 -0.20 147 145 146
0.00 0.06 0.30 193 205 107
-0.30 -0.06 -0.64 80 90 92
-0.13 0.16 -0.48 78 89 73
-0.13 0.16 -0.48 78 89 73
-0.23 0.19 -0.71 153 149 137
-0.54 0.21 -2.32 158 154 145
-0.54 0.21 -2.32 158 154 145
-0.43 0.71 -2.09 63 67 44
-0.33 -0.07 -0.73 31 34 13
-0.31 -0.04 -0.73 155 167 81
-0.38 -0.15 -1.67 75 88 96
-0.43 0.54 -1.80 69 81 67
-0.50 0.04 -1.72 158 154 153
0.70 0.84 2.94 121 127 127
0.04 0.03 0.01 121 127 127
-0.21 -0.07 -0.35 102 113 119
0.51 0.65 1.80 37 47 20
-0.15 -0.07 -0.22 30 42 18
-0.12 0.18 -0.44 53 64 34
-0.32 0.01 -0.94 146 146 144
-0.29 -0.12 -0.60 44 55 39
-0.33 -0.05 -0.93 44 55 39
-0.34 0.19 -1.25 150 145 126
-0.13 -0.01 -0.16 154 152 153
-0.31 0.14 -0.93 160 156 153
-0.39 0.11 -1.28 160 156 153
-0.13 0.12 -0.40 148 144 133
-0.11 0.03 -0.39 156 152 141
-0.49 -0.30 -2.74 146 146 148
-0.84 -1.44 -5.51 45 55 30
-0.27 -0.08 -0.62 136 143 102
-0.32 -0.06 -0.70 74 90 90
-0.21 0.24 -0.68 77 81 48
-0.31 0.22 -1.11 142 137 131
-0.36 -0.69 -2.75 49 54 22
-0.18 0.19 -0.48 63 85 36
-0.32 0.24 -1.10 54 72 50
-0.28 0.13 -0.84 155 151 142
-0.31 -0.06 -0.61 38 43 21
0.43 0.52 1.61 136 140 139
-0.21 -0.08 -0.57 150 149 154
-0.32 0.41 -1.51 145 160 137
-0.22 0.22 -0.68 57 65 50
-0.32 0.25 -1.00 238 245 229
-0.40 0.35 -1.80 147 144 125
-0.33 0.26 -1.33 157 153 150
-0.07 -0.11 -0.29 59 61 50
-0.38 0.23 -1.66 157 154 147
-0.40 0.17 -1.79 154 154 156
-0.33 -0.00 -0.86 148 161 118
-0.32 0.35 -1.32 151 147 136
-0.32 0.05 -0.99 153 153 155
-0.23 0.19 -0.65 80 84 61
-0.41 0.28 -1.38 153 152 148
-0.33 0.25 -1.46 153 152 148
-0.34 0.24 -1.01 85 89 66
4.92 -4.35 20.58 85 89 66
-0.36 0.15 -1.60 154 152 153
-0.32 -0.06 -0.74 125 134 115
-0.34 0.04 -1.57 154 152 153
-0.29 0.18 -0.86 153 149 138
-0.64 -0.33 -3.38 165 172 131
-0.25 -0.08 -0.40 120 120 112
-0.72 0.83 -3.01 87 98 68
-0.33 0.24 -1.04 46 62 61
-0.33 0.22 -1.10 93 102 73
-0.38 0.19 -1.48 152 149 144
-0.26 -0.12 -0.55 39 45 35
0.10 0.10 0.12 39 45 35
-0.32 -0.04 -0.76 39 45 35
-0.29 -0.11 -0.61 42 48 36
3.12 4.02 15.87 42 48 36
-0.31 0.05 -0.82 154 152 153
-0.39 0.30 -1.34 48 60 60
-0.19 0.20 -0.61 77 92 69
26.02 1.39 117.30 156 154 157
-0.27 -0.03 -0.51 255 250 198
-0.87 -0.63 -4.54 39 49 41
-0.19 -0.11 -0.38 39 49 41
-3.15 -4.98 -17.16 38 44 42
-0.34 0.37 -1.36 248 251 240
-0.23 0.01 -0.43 152 156 139
-0.80 -0.98 -4.25 47 58 44
-0.34 0.08 -1.11 155 153 158
0.07 0.08 0.33 56 67 33
-0.27 0.07 -0.73 154 154 154
-0.08 -0.02 -0.10 153 151 152
-0.28 -0.05 -0.66 147 150 157
1.21 0.98 6.95 241 243 193
0.46 0.30 2.51 151 162 122
-0.53 -0.34 -2.54 183 197 136
-0.40 0.14 -1.59 154 154 152
-0.62 0.12 -1.94 155 155 155
-0.32 0.07 -0.88 162 152 150
-0.29 0.04 -0.73 154 153 158
-0.35 0.24 -1.26 243 239 228
-0.21 -0.13 -0.51 117 127 67
-1.03 -0.35 -3.29 180 176 177
-0.10 -0.10 -0.30 238 232 206
-0.10 -0.10 -0.30 238 232 206
-0.10 -0.10 -0.30 238 232 206
-0.14 -0.12 -0.43 162 162 136
-0.15 -0.13 -0.44 162 162 136
-0.14 -0.09 -0.28 70 66 65
-0.13 -0.14 -0.40 242 236 202
-0.10 -0.10 -0.29 242 236 202
-0.16 -0.03 -0.41 153 153 153
-0.22 -0.06 -0.46 115 134 55
-0.30 -0.01 -0.65 115 134 55
-0.34 -0.03 -0.84 197 192 173
-0.79 -0.90 -4.25 197 192 173
-0.30 -0.01 -0.63 247 243 214
-0.13 -0.14 -0.41 55 60 54
-0.35 -0.06 -0.99 55 60 54
-0.10 -0.10 -0.30 72 59 89
-0.10 -0.10 -0.30 72 59 89
-0.34 -0.03 -0.91 57 66 49
-0.15 -0.13 -0.44 64 66 61
-0.14 -0.12 -0.42 64 66 61
-0.34 0.09 -1.11 159 158 156
-1.59 -2.24 -7.79 171 166 134
-0.25 0.10 -0.71 150 150 142
-0.10 -0.10 -0.30 203 195 182
-0.15 -0.13 -0.44 187 183 156
-0.11 -0.09 -0.31 187 183 156
-0.14 -0.12 -0.43 187 183 156
-0.15 -0.13 -0.44 187 183 156
-0.15 -0.13 -0.43 196 190 164
-0.11 -0.09 -0.32 196 190 164
-0.15 -0.13 -0.43 196 190 164
-0.34 0.23 -1.24 157 153 152
-0.15 -0.12 -0.45 83 90 49
-0.42 -0.14 -1.77 83 90 49
-4.79 -4.64 -21.73 83 90 49
-0.04 -0.06 -0.24 233 225 202
-0.30 0.05 -0.77 120 104 89
-0.30 0.05 -0.77 120 104 89
-3.12 -4.56 -15.33 43 48 44
-0.34 -0.02 -0.90 50 53 36
-0.33 0.27 -0.93 242 244 243
-0.44 -0.00 -1.80 163 159 160
-0.44 0.14 -1.43 155 153 154
-0.14 -0.08 -0.39 156 182 57
-0.23 0.09 -0.61 152 151 149
-0.12 0.01 -0.40 123 110 94
-0.34 0.00 -0.92 178 191 101
-0.14 -0.12 -0.44 232 231 201
-0.34 0.08 -0.91 73 56 40
-0.26 0.04 -0.66 112 99 83
-0.63 0.26 -2.14 112 99 83
-0.36 0.31 -1.20 250 246 235
-0.15 -0.09 -0.43 148 164 93
-0.11 -0.10 -0.31 49 52 45
-0.13 -0.13 -0.39 78 79 63
-0.14 -0.14 -0.40 78 79 63
-0.38 0.29 -1.07 88 90 77
-0.34 -0.11 -0.61 124 126 115
-0.36 0.26 -1.13 247 247 239
-0.34 0.26 -0.94 238 238 238
-0.29 0.22 -0.80 245 242 237
-0.14 -0.12 -0.39 84 85 77
-0.44 0.04 -1.49 123 111 95
-0.17 0.04 -0.51 159 157 158
-0.60 0.27 -2.17 159 157 158
-0.32 -0.11 -0.61 49 56 48
-0.14 -0.13 -0.41 79 82 71
-0.14 -0.14 -0.42 79 82 71
-0.14 -0.14 -0.42 79 82 71
-0.14 -0.13 -0.39 77 80 69
-0.14 -0.14 -0.40 77 80 69
-0.20 -0.17 -0.47 138 139 131
-0.36 0.24 -1.17 245 242 235
-0.10 -0.01 -0.34 37 29 27
-1.15 0.22 -4.38 37 29 27
-0.36 0.11 -1.07 40 31 32
-0.37 0.43 -1.27 244 246 235
-0.37 0.09 -1.29 42 32 33
-0.31 0.01 -0.74 36 30 32
-0.35 0.17 -1.00 157 155 156
-0.36 0.12 -1.25 157 155 156
-0.35 -0.09 -0.68 84 87 78
-0.38 -0.06 -1.10 84 87 78
1.62 1.87 7.05 84 87 78
-0.14 -0.12 -0.39 86 87 79
-0.25 -0.12 -0.49 86 87 79
-0.42 0.31 -1.41 255 254 249
-0.36 0.18 -0.98 154 153 148
-0.31 0.01 -0.72 74 81 29
-0.57 0.42 -1.98 254 250 241
-0.35 -0.03 -0.83 78 89 49
-0.14 -0.13 -0.40 78 81 72
-0.14 -0.13 -0.40 78 81 72
-0.14 -0.14 -0.42 78 81 72
-0.34 0.28 -0.93 234 238 239
-0.24 -0.02 -0.60 47 45 46
-0.21 -0.02 -0.51 44 44 46
-0.38 0.09 -1.32 161 161 161
-0.29 0.01 -0.69 39 29 28
-0.24 -0.02 -0.56 52 50 51
-0.23 -0.04 -0.57 45 43 44
-0.45 -0.33 -2.03 65 71 33
-0.38 0.21 -1.10 250 243 237
-0.32 0.22 -0.85 252 249 242
-0.37 0.21 -1.09 242 235 225
-0.38 0.12 -1.20 44 38 40
-0.35 0.33 -1.18 249 248 243
-0.22 -0.01 -0.64 42 38 37
-3.18 -1.84 -7.97 105 112 104
-3.55 -2.08 -8.88 54 58 44
-0.32 0.01 -0.74 38 33 29
-0.13 -0.10 -0.36 113 127 76
-0.46 0.09 -1.34 159 159 161
-0.41 0.05 -1.41 120 110 98
-0.12 -0.11 -0.35 60 69 52
-0.35 0.19 -0.95 154 146 144
-0.30 0.14 -0.81 255 255 239
-0.35 0.18 -0.93 150 144 146
-0.29 0.04 -0.70 49 44 40
-0.16 -0.11 -0.45 131 136 80
-0.35 0.17 -0.95 155 154 152
-0.43 0.24 -1.44 155 154 152
2.64 -0.00 8.62 37 27 25
-0.34 0.12 -0.89 160 160 162
3.88 0.11 14.00 39 32 26
-0.58 -0.28 -2.39 80 78 40
-0.49 -0.27 -2.06 167 179 97
-0.35 -0.04 -0.73 76 71 52
-0.37 0.20 -1.03 113 94 87
-0.46 0.37 -1.48 250 251 246
-0.38 0.19 -1.02 225 201 167
-0.69 0.33 -2.23 156 148 135
-0.20 0.05 -0.58 160 158 159
-0.37 0.18 -1.11 225 201 165
-0.49 0.25 -1.60 158 158 158
-0.37 0.20 -1.15 158 158 158
-0.03 0.03 -0.03 135 114 93
-0.22 0.18 -0.54 250 249 247
-0.68 0.07 -1.75 45 39 49
-0.26 -0.13 -0.48 84 87 66
-0.41 0.22 -1.34 121 110 90
-0.56 0.07 -1.43 41 31 30
-0.55 -0.18 -2.06 41 44 37
-0.37 0.01 -0.98 72 87 22
-0.23 -0.13 -0.52 95 78 32
-0.30 -0.09 -0.60 88 85 40
-0.34 0.22 -0.90 251 250 246
-0.29 0.02 -0.67 59 61 58
-0.22 -0.02 -0.50 31 31 33
4.22 -0.19 15.77 31 31 33
-0.24 -0.05 -0.62 31 31 33
0.83 0.20 2.22 32 31 29
0.04 0.03 0.01 35 36 31
1.82 1.57 4.51 174 153 108
-0.21 0.19 -0.55 97 101 87
-0.23 0.05 -0.64 160 160 160
-0.20 0.19 -0.58 102 109 101
-0.35 -0.01 -0.76 188 200 128
-0.64 -0.27 -2.41 188 200 128
-0.08 0.04 0.08 74 57 41
-0.50 -0.30 -2.02 74 57 41
-0.38 0.46 -1.28 100 113 87
-0.45 0.44 -1.44 94 100 90
-0.47 0.45 -1.41 94 100 90
-0.31 0.16 -0.82 146 128 92
-0.40 0.22 -1.12 157 148 139
-0.33 0.14 -0.86 156 156 158
-0.19 0.19 -0.54 92 96 82
-0.32 0.06 -0.78 116 103 86
-0.37 0.35 -1.15 248 250 249
-0.34 0.26 -0.84 248 250 249
-0.39 0.25 -1.08 131 116 87
-0.67 -0.58 -2.86 73 57 42
-0.37 0.21 -1.03 124 108 85
-0.38 0.14 -1.16 154 154 154
-0.35 0.07 -0.86 39 37 38
-0.25 -0.01 -0.61 44 40 39
-0.48 -0.21 -1.82 81 82 14
-1.05 -0.82 -4.19 72 66 30
-0.20 0.20 -0.58 97 99 78
-0.20 0.20 -0.58 97 99 78
-0.54 0.05 -1.46 93 84 67
2.40 2.87 7.53 255 252 216
-0.33 -0.12 -0.56 255 252 216
-0.27 0.20 -0.67 104 106 92
-0.21 0.20 -0.59 104 106 92
0.43 0.36 1.28 68 52 29
-0.43 -0.23 -1.63 113 93 60
-0.20 0.19 -0.55 250 246 245
-0.37 0.35 -1.19 250 246 245
-0.35 -0.10 -0.64 65 53 37
-0.48 -0.25 -1.83 65 53 37
-0.45 0.53 -1.41 86 103 67
-0.26 -0.01 -0.59 48 49 51
-0.38 0.25 -1.17 126 103 89
-0.33 0.20 -0.87 126 103 89
-0.32 0.06 -0.77 127 108 76
-0.45 0.38 -1.33 250 249 245
-0.31 0.04 -0.73 120 110 98
-0.20 0.19 -0.54 83 98 79
-0.11 -0.12 -0.35 74 58 42
-0.11 -0.12 -0.35 74 58 42
-0.38 0.25 -1.17 131 114 98
-0.38 0.22 -1.08 97 83 70
-0.34 -0.05 -0.62 64 52 38
-0.37 0.23 -0.99 116 113 108
-1.86 -0.13 -5.57 38 40 37
-0.14 -0.12 -0.38 61 47 36
-0.37 0.21 -1.02 113 102 84
0.60 0.18 2.07 31 31 31
0.03 0.02 0.00 203 212 129
-0.36 0.26 -0.92 83 92 47
-0.33 0.08 -0.80 132 112 85
-9.84 -6.46 -37.04 101 104 75
-0.32 -0.12 -0.58 60 51 36
-0.34 -0.04 -0.64 100 104 90
0.77 0.59 1.71 60 50 38
-0.39 0.23 -1.15 128 108 83
-0.01 0.00 -0.12 189 197 120
-0.31 -0.10 -0.61 48 52 38
-0.16 -0.10 -0.37 98 101 90
-0.13 -0.10 -0.35 98 101 90
-0.15 -0.11 -0.40 95 97 92
-0.21 0.19 -0.57 77 83 79
-0.29 -0.03 -0.59 93 94 89
0.57 0.31 1.23 74 77 48
-0.57 -0.53 -2.36 77 71 49
-0.32 0.05 -0.74 120 107 90
-0.20 -0.16 -0.45 77 72 50
-0.29 -0.00 -0.63 118 108 98
-0.16 -0.13 -0.43 88 92 77
-0.12 -0.09 -0.31 88 92 77
-0.15 -0.13 -0.42 88 92 77
-0.16 -0.13 -0.43 90 93 86
-0.16 -0.13 -0.43 90 93 86
-0.16 -0.13 -0.43 90 93 86
-1.08 -0.25 -3.13 112 103 94
-0.23 0.19 -0.57 77 79 100
-0.16 -0.12 -0.42 93 99 89
-0.16 -0.13 -0.41 88 92 77
-0.44 0.11 -1.12 133 113 89
-0.16 -0.12 -0.42 99 101 98
-0.15 -0.11 -0.41 99 101 98
-0.16 -0.12 -0.43 99 101 98
-0.26 0.25 -0.68 75 87 39
-0.22 0.18 -0.56 82 98 87
-0.37 0.18 -0.94 105 89 74
-0.16 -0.12 -0.43 91 97 85
-0.16 -0.12 -0.43 100 104 90
-0.13 -0.14 -0.40 59 62 55
-0.39 0.34 -1.18 243 248 228
-0.48 0.15 -1.38 122 106 93
-0.15 -0.13 -0.39 88 88 78
-0.16 -0.14 -0.42 91 93 80
-0.38 0.29 -0.98 74 90 41
-0.40 0.07 -1.26 108 87 66
-0.19 0.07 -0.11 252 247 228
-0.41 0.17 -1.10 255 251 208
-0.38 0.18 -1.01 154 154 154
-0.33 0.05 -0.75 111 97 86
-0.16 -0.13 -0.42 91 97 85
-0.15 -0.13 -0.41 93 97 82
-0.07 0.07 -0.24 84 88 99
-0.09 0.09 -0.28 242 247 181
-0.09 0.09 -0.27 242 247 181
-0.46 0.23 -1.30 246 221 180
-0.25 -0.01 -0.54 45 43 48
-0.47 0.45 -1.28 248 248 194
-0.47 0.45 -1.28 248 248 194
-0.42 0.23 -1.14 242 223 181
-0.36 -0.01 -0.75 49 44 51
-0.46 0.44 -1.26 247 247 195
-0.46 0.44 -1.26 247 247 195
-0.39 0.23 -0.99 164 164 140
-0.40 0.25 -1.09 217 196 153
0.31 0.04 0.77 50 49 47
-0.31 -0.04 -0.59 79 87 38
-0.16 -0.13 -0.41 93 95 84
-0.15 -0.12 -0.40 93 95 84
-0.16 -0.13 -0.43 93 95 84
-8.76 -5.64 -23.47 56 64 41
-0.17 -0.12 -0.44 91 98 90
-0.17 -0.12 -0.45 91 98 90
-0.18 -0.12 -0.45 91 98 90
-0.35 0.15 -0.86 113 108 79
-0.38 0.13 -0.98 123 111 97
-0.41 0.11 -1.23 123 111 97
-0.16 -0.12 -0.43 95 102 95
-0.13 -0.09 -0.33 95 102 95
-0.12 -0.10 -0.31 91 98 80
-0.15 -0.13 -0.41 91 98 80
-0.17 -0.14 -0.43 91 98 80
-0.16 -0.14 -0.42 90 95 73
-0.16 -0.14 -0.42 90 95 73
-0.12 -0.10 -0.30 90 95 73
-0.36 0.04 -0.84 47 47 49
-0.43 0.45 -1.27 52 69 37
-0.72 0.06 -1.83 116 106 96
-1.03 -0.60 -3.65 99 109 101
-0.72 -0.25 -2.40 102 108 98
-0.48 -0.06 -1.32 49 47 48
-0.17 -0.12 -0.44 55 57 52
-0.17 -0.12 -0.44 55 57 52
-0.17 -0.12 -0.44 55 57 52
-0.17 -0.12 -0.44 55 57 52
-0.15 -0.12 -0.40 97 101 87
-0.16 -0.13 -0.41 96 99 88
-0.17 -0.14 -0.42 53 56 49
-0.12 -0.10 -0.31 53 56 49
-0.17 -0.14 -0.42 53 56 49
-0.41 -0.09 -1.04 230 224 210
-0.25 -0.05 -0.53 33 29 28
7.52 -7.93 21.03 66 81 42
-0.37 -0.01 -0.77 36 32 33
-2.55 0.03 -7.53 53 52 50
0.22 0.16 0.71 58 67 38
-0.17 -0.10 -0.40 99 107 92
-0.18 -0.00 -0.21 99 107 92
-0.41 0.20 -1.13 252 253 222
-0.17 -0.12 -0.44 94 102 89
-0.18 -0.12 -0.44 94 102 89
-0.13 -0.09 -0.33 93 100 92
-0.13 -0.09 -0.33 93 100 92
-0.16 -0.12 -0.43 93 100 92
-0.15 -0.13 -0.41 95 99 82
-0.17 -0.14 -0.42 98 102 79
-0.15 -0.13 -0.40 98 102 79
-0.17 -0.14 -0.42 98 102 79
-0.41 0.36 -1.16 65 70 38
-0.32 0.01 -0.72 52 57 51
0.01 0.04 -0.08 52 57 51
-0.54 0.05 -1.61 52 53 57
-0.42 0.09 -1.24 39 35 36
-0.21 0.01 -0.34 174 194 95
-0.16 -0.13 -0.40 88 90 79
-0.36 0.20 -0.90 249 245 234
-0.16 -0.13 -0.41 92 95 86
-0.16 -0.13 -0.43 92 95 86
-0.17 -0.13 -0.44 92 95 86
-0.20 -0.10 -0.44 54 62 39
-0.45 -0.03 -1.18 54 62 39
-0.38 -0.00 -0.87 54 62 39
-0.38 0.25 -0.90 61 66 36
-0.28 0.24 -0.70 61 66 36
-0.40 0.16 -1.12 160 158 159
-0.17 -0.13 -0.44 89 96 80
-0.17 -0.13 -0.43 95 101 87
-0.21 -0.02 -0.23 243 235 222
0.98 1.29 4.13 243 235 222
-0.36 0.02 -0.78 49 47 52
-0.41 0.20 -1.06 241 237 228
-0.38 0.09 -0.93 36 34 39
-0.16 0.00 -0.45 36 34 39
-0.33 0.01 -0.73 55 57 54
-4.65 -0.00 -10.74 55 57 54
-0.40 0.23 -1.08 247 242 236
-0.40 0.18 -1.08 242 238 229
-0.40 0.21 -1.06 242 238 229
-1.87 0.12 -4.75 88 80 69
-0.43 0.06 -1.10 73 72 80
5.48 1.93 19.28 61 68 35
-0.12 -0.11 -0.33 54 56 51
-0.43 -0.12 -1.27 54 56 51
-2.60 -0.60 -6.08 71 74 81
-0.27 0.03 -0.53 71 74 81
-0.33 0.01 -0.73 42 33 34
-0.18 -0.12 -0.44 103 106 99
-0.17 -0.12 -0.42 97 100 89
0.26 0.19 0.46 255 252 220
-0.24 -0.16 -0.48 255 252 220
-0.42 0.17 -1.02 248 244 233
-0.40 0.21 -1.07 249 240 231
-0.35 0.09 -0.81 163 163 163
-0.17 -0.12 -0.42 99 107 96
-0.16 -0.12 -0.42 99 107 96
-0.17 -0.12 -0.43 99 107 96
-0.15 -0.13 -0.39 100 105 85
-0.16 -0.14 -0.42 100 105 85
-0.08 -0.08 -0.22 66 70 53
-0.36 -0.04 -0.64 66 70 53
-0.18 -0.12 -0.43 101 107 97
-0.17 -0.12 -0.43 90 98 87
-0.15 -0.13 -0.40 96 98 85
-0.49 -0.16 -1.37 84 92 69
-0.41 0.21 -1.02 250 244 232
-0.16 -0.13 -0.42 93 100 82
-0.16 -0.13 -0.42 93 100 82
-0.16 -0.13 -0.42 93 100 82
-0.17 -0.13 -0.43 97 101 87
-0.17 -0.13 -0.43 97 101 87
-0.17 -0.13 -0.43 97 101 87
-0.88 0.01 -2.30 47 43 44
0.61 -0.03 1.92 54 60 56
-0.40 0.30 -1.05 58 56 33
-0.47 0.21 -1.20 203 196 186
-0.37 0.26 -0.86 59 73 38
-0.35 0.00 -0.73 46 47 42
-0.27 -0.08 -0.48 96 105 102
-0.44 -0.04 -1.09 40 47 39
-0.18 -0.12 -0.43 95 106 92
-0.18 -0.12 -0.43 95 106 92
-0.17 -0.12 -0.42 98 103 97
-0.46 0.14 -1.26 122 112 102
-0.18 -0.13 -0.43 49 50 45
-0.13 -0.10 -0.32 49 50 45
-0.18 -0.13 -0.43 49 50 45
-0.69 0.05 -1.98 51 50 56
-0.30 0.03 -0.62 72 72 80
-0.46 0.04 -1.34 72 72 80
-0.40 0.20 -1.05 244 241 226
10.76 5.86 25.69 53 63 38
-0.16 -0.13 -0.42 99 105 93
-0.16 -0.13 -0.42 99 105 93
1.18 0.26 3.30 60 64 73
-0.16 -0.13 -0.42 92 100 89
-0.13 -0.10 -0.32 92 100 89
-0.18 -0.13 -0.43 92 100 89
-0.18 -0.12 -0.43 97 107 99
-0.17 -0.12 -0.42 99 109 101
-0.16 -0.14 -0.38 84 74 73
-0.40 0.29 -1.04 206 222 149
-0.41 0.30 -1.08 206 222 149
-0.17 -0.12 -0.42 98 104 102
-0.97 0.16 -2.69 112 99 90
-0.34 0.06 -0.74 112 99 90
-0.40 0.22 -0.97 255 254 241
-0.41 0.23 -1.03 255 254 241
-0.41 0.17 -1.05 215 208 198
-0.37 0.15 -0.87 215 208 198
-0.38 -0.03 -0.75 59 63 49
-0.17 -0.14 -0.43 59 63 49
-0.40 0.24 -1.01 250 246 234
-0.29 0.17 -0.68 255 255 248
-0.41 0.19 -1.05 249 242 234
-0.40 0.06 -0.96 44 55 73
-0.46 -0.01 -1.29 147 159 121
-0.35 0.09 -0.81 48 46 49
-0.43 -0.03 -1.03 45 50 43
-0.17 -0.12 -0.43 102 113 99
-0.17 -0.12 -0.43 95 106 92
-0.40 0.22 -0.98 246 242 231
-0.40 0.28 -1.02 77 88 48
-0.30 -0.01 -0.62 54 55 60
-0.26 -0.16 -0.48 229 224 192
-0.26 -0.16 -0.48 229 224 192
-0.40 0.12 -0.95 120 109 91
-0.33 0.05 -0.71 36 33 26
-0.37 0.01 -0.76 53 53 63
0.29 0.24 1.13 53 65 41
-0.98 0.92 -2.63 110 135 33
-0.41 0.31 -1.05 242 255 215
-0.38 0.26 -0.84 242 255 215
0.09 -0.09 0.17 31 43 29
-0.34 0.06 -0.72 134 118 92
-0.37 -0.03 -0.69 55 66 49
0.74 0.79 2.54 62 67 44
-0.52 -0.19 -1.49 62 67 44
-0.14 -0.13 -0.36 109 104 85
-0.41 0.24 -1.02 238 232 218
-0.67 -0.39 -2.16 57 61 38
-0.19 -0.14 -0.42 57 61 38
-0.39 0.24 -0.88 245 255 202
-0.38 0.15 -0.89 162 158 155
-0.42 0.11 -1.12 163 163 165
-0.35 -0.02 -0.63 99 116 100
-0.18 -0.13 -0.43 58 60 46
-0.45 0.23 -1.09 243 239 227
-0.44 0.17 -1.03 230 228 216
-0.20 -0.13 -0.39 77 80 49
-0.43 0.18 -1.09 158 159 153
0.18 0.16 0.68 58 66 45
0.86 0.71 1.95 67 63 60
-0.38 -0.01 -0.76 99 110 112
0.04 0.04 0.13 52 56 55
-0.17 -0.13 -0.42 106 115 94
-0.39 0.14 -0.92 161 159 160
-0.42 0.17 -1.06 150 146 143
-0.19 -0.12 -0.45 98 115 105
-0.19 -0.12 -0.45 98 115 105
-0.17 -0.12 -0.43 102 114 104
-0.18 -0.12 -0.44 102 114 104
-4.66 -2.34 -14.05 124 128 127
-0.33 -0.12 -0.56 46 50 33
1.93 1.70 6.40 46 50 33
0.18 0.07 0.27 32 38 38
0.59 0.56 1.52 61 63 50
-0.28 0.05 -0.65 162 162 164
-0.40 0.27 -0.96 42 52 28
-0.28 -0.13 -0.52 107 112 105
-0.42 0.18 -1.04 192 185 175
-0.19 -0.12 -0.45 46 56 45
-0.30 -0.04 -0.56 151 157 145
-0.34 -0.04 -0.65 170 181 165
-0.19 -0.12 -0.45 45 57 43
-0.19 -0.12 -0.45 45 57 43
-0.41 0.29 -0.99 50 65 36
-0.41 0.18 -1.02 243 238 232
-0.45 0.14 -1.16 156 156 158
-0.32 0.08 -0.70 161 161 161
-0.18 -0.11 -0.42 44 47 40
-0.40 0.15 -0.92 159 159 159
-0.19 -0.12 -0.45 109 121 111
-0.14 -0.09 -0.33 109 121 111
-0.19 -0.12 -0.44 105 116 108
-0.18 -0.12 -0.44 105 116 108
-0.13 -0.06 -0.26 85 88 77
-0.65 -0.39 -2.05 40 44 27
-0.16 -0.13 -0.39 40 44 27
-0.32 0.24 -0.71 34 54 19
-0.18 -0.13 -0.44 120 130 119
-0.17 -0.11 -0.37 120 130 119
-0.40 0.26 -0.91 108 134 43
-0.40 0.13 -0.93 160 158 159
-0.30 -0.04 -0.61 154 158 167
0.12 0.25 0.76 46 49 54
-2.04 -0.25 -5.01 166 167 171
-0.51 0.36 -1.18 73 82 39
-0.40 0.17 -0.92 245 239 225
-0.35 0.23 -0.76 64 74 37
-0.30 -0.07 -0.58 152 152 160
-0.31 -0.15 -0.51 48 56 33
-0.35 0.26 -0.74 81 109 35
-0.39 0.24 -0.86 48 52 35
-0.66 0.31 -1.58 243 240 223
-0.02 -0.01 -0.12 76 84 60
0.29 0.22 0.78 49 49 47
-0.20 -0.12 -0.47 50 60 52
-0.20 -0.03 -0.25 49 50 70
-0.39 -0.04 -0.67 40 48 33
-0.42 0.29 -1.04 98 105 63
-0.45 0.19 -1.07 153 152 147
-0.45 0.20 -1.08 247 237 225
-0.58 0.26 -1.37 247 237 225
-1.56 -0.49 -3.41 154 154 162
-1.59 -0.49 -4.33 156 157 162
0.03 0.01 0.10 156 157 162
-0.36 0.23 -0.76 77 85 34
-0.57 0.38 -1.30 99 103 76
-0.08 -0.05 -0.20 151 152 147
-0.38 -0.01 -0.70 151 152 147
-0.07 -0.07 -0.22 33 37 20
-0.44 0.28 -1.04 77 57 69
-0.38 0.22 -0.83 207 209 159
-0.41 0.18 -0.93 250 245 226
-0.62 -0.02 -1.62 172 172 170
0.01 0.01 -0.07 170 170 172
-0.41 0.20 -0.94 76 57 102
-0.42 0.19 -0.96 76 58 100
-0.48 0.16 -1.09 223 209 200
-1.14 -0.24 -2.86 172 172 172
-0.41 0.18 -0.94 51 40 57
-0.39 0.25 -0.83 63 78 39
-0.29 0.09 -0.66 64 50 63
-0.32 0.00 -0.63 203 203 193
-0.09 -0.03 -0.24 152 155 162
-0.21 -0.06 -0.30 35 42 26
-0.41 0.18 -0.93 63 55 70
-0.45 0.12 -1.11 172 167 164
18.28 10.66 45.76 195 194 192
-0.45 0.26 -1.05 51 43 40
0.85 0.88 2.86 33 36 17
0.85 0.88 2.86 33 36 17
-0.40 0.24 -0.86 47 50 29
-0.40 0.22 -0.87 110 93 73
-0.40 0.22 -0.87 110 93 73
-0.41 0.20 -0.94 126 108 94
-0.47 0.26 -1.06 51 47 38
-0.41 0.15 -0.91 67 44 60
-0.37 0.09 -0.79 241 236 232
-0.27 -0.07 -0.42 219 219 183
-0.42 0.17 -0.95 131 115 89
-0.34 0.08 -0.75 137 115 104
2.99 1.74 7.34 72 71 67
-0.43 0.19 -0.99 43 37 37
-0.41 0.22 -0.92 73 65 46
-0.51 0.30 -1.14 73 65 46
-0.42 0.21 -0.95 92 76 63
-0.35 0.04 -0.74 134 103 109
-0.20 -0.07 -0.32 129 126 117
-0.32 -0.12 -0.56 129 126 117
-0.41 0.24 -0.90 47 51 24
-0.40 0.23 -0.87 43 33 32
-0.41 0.17 -0.90 40 35 31
-1.31 -0.33 -2.81 164 163 169
-0.39 0.15 -0.87 77 64 48
-0.42 0.18 -0.95 77 64 48
-0.40 0.13 -0.86 65 46 29
-0.46 0.15 -1.07 65 46 29
-0.49 0.13 -1.17 169 147 136
-0.41 0.12 -0.90 169 147 136
0.24 0.21 0.89 55 47 60
-0.94 0.17 -1.99 94 62 67
-0.42 0.13 -0.95 94 62 67
-0.36 0.01 -0.71 155 130 149
-0.42 0.20 -0.93 77 60 52
-0.39 0.22 -0.84 87 70 50
-0.42 0.19 -0.94 38 35 42
-0.39 0.16 -0.86 40 31 32
-0.41 0.17 -0.90 40 31 32
-0.55 0.13 -1.25 115 87 65
-0.48 0.14 -1.11 85 53 42
-0.52 0.31 -1.15 49 39 30
-0.40 0.05 -0.80 132 106 115
0.23 0.21 0.62 29 38 19
-0.07 -0.06 -0.17 29 38 19
-0.06 -0.01 -0.05 75 58 30
-0.19 -0.03 -0.47 239 222 228
0.02 0.22 0.43 146 121 80
-0.31 0.07 -0.69 87 70 78
-0.23 0.04 -0.28 244 241 208
-0.66 -0.04 -1.62 120 91 109
-0.44 0.00 -0.99 126 133 141
-0.41 0.22 -0.90 64 50 39
-0.44 0.25 -0.99 64 50 39
-0.43 0.25 -0.99 65 57 38
-0.42 0.15 -0.90 198 174 146
-0.42 0.15 -0.90 198 174 146
-0.48 0.04 -1.19 123 93 93
-0.31 0.01 -0.69 110 82 68
-0.80 0.03 -1.73 110 82 68
-0.35 0.23 -0.74 81 107 70
-0.50 0.10 -1.20 65 49 52
-0.40 0.06 -0.79 72 57 52
-0.41 0.19 -0.91 44 35 30
-0.37 0.05 -0.74 78 61 51
-0.42 0.12 -0.93 78 61 51
-0.41 0.06 -0.81 84 61 55
7.84 2.19 15.84 115 90 96
-0.83 0.16 -1.74 59 42 48
-0.37 0.11 -0.78 56 38 54
-0.42 -0.01 -0.82 232 229 214
-0.25 -0.09 -0.50 169 149 138
-0.32 0.24 -0.70 65 87 38
-0.39 0.23 -0.82 65 87 38
-0.43 0.17 -0.95 80 80 78
-0.29 0.04 -0.62 129 103 86
-0.50 0.05 -1.23 76 58 72
-0.36 0.03 -0.68 64 43 40
-0.44 0.03 -0.99 64 43 40
-0.41 0.25 -0.88 245 255 215
-0.46 0.30 -1.04 88 99 57
-0.41 0.21 -0.89 44 34 25
-0.37 0.05 -0.76 171 143 104
-0.45 0.04 -1.01 171 143 104
-0.32 -0.14 -0.51 25 28 21
-0.44 0.26 -0.98 181 183 134
134.60 64.37 276.94 161 163 160
-0.41 0.18 -0.89 119 105 78
-0.42 0.18 -0.90 119 105 78
-0.33 0.05 -0.61 93 73 72
-1.46 -0.50 -3.14 67 42 45
-0.33 0.19 -0.66 96 96 106
-0.58 0.37 -1.30 96 96 106
-0.43 0.26 -0.96 96 96 106
-0.46 0.19 -1.01 126 108 86
-0.42 0.17 -0.90 126 108 86
-0.41 0.13 -0.85 46 30 30
-0.34 0.04 -0.65 71 44 33
-0.24 -0.09 -0.52 77 42 46
-0.08 -0.00 -0.09 77 42 46
-0.45 0.10 -1.04 58 44 35
-0.02 0.06 0.12 51 32 38
-0.28 -0.08 -0.48 50 34 60
-0.49 -0.11 -1.22 226 211 216
-0.40 0.18 -0.88 44 33 29
-0.30 0.02 -0.68 55 38 31
-0.38 -0.04 -0.61 198 193 189
-0.17 -0.04 -0.39 60 45 40
-0.35 -0.03 -0.65 60 45 40
-0.43 0.14 -0.93 53 36 46
-0.34 -0.10 -0.58 158 153 150
-0.10 -0.07 -0.24 65 46 92
-0.38 0.22 -0.77 60 88 40
-0.29 -0.07 -0.40 41 46 26
-0.42 0.18 -0.90 115 101 66
-0.45 0.24 -0.98 250 253 206
-0.44 0.29 -1.00 254 253 222
-0.44 0.29 -1.00 254 253 222
6.60 4.85 14.65 29 28 24
-0.37 0.26 -0.75 250 250 216
-0.35 -0.05 -0.63 190 181 142
-1.35 -0.37 -2.78 190 181 142
-0.41 0.14 -0.85 109 94 71
-0.39 0.05 -0.76 63 50 41
-0.30 0.02 -0.67 64 47 37
-0.39 0.01 -0.73 57 40 48
-0.41 0.26 -0.87 254 255 223
-0.44 0.28 -0.98 105 112 120
-0.46 0.26 -1.00 230 236 190
-0.32 -0.04 -0.50 48 28 19
-0.41 -0.07 -0.62 52 72 21
0.00 0.15 0.27 52 72 21
-0.42 0.17 -0.89 130 111 79
-0.54 0.18 -1.19 44 33 31
-4.28 -1.46 -8.99 50 34 34
-0.38 -0.02 -0.65 50 34 34
-0.41 0.24 -0.82 255 255 225
-0.40 0.23 -0.81 255 255 225
-0.65 -0.24 -1.61 18 21 10
-0.24 0.04 -0.40 91 77 64
-0.32 -0.06 -0.59 60 47 57
-0.43 0.26 -0.94 255 255 234
-0.13 -0.10 -0.32 33 37 23
-0.38 0.03 -0.70 66 49 39
-0.21 -0.05 -0.44 120 105 84
-2.11 -1.07 -4.92 34 20 17
-2.62 -0.98 -5.77 144 121 87
-0.40 0.01 -0.72 47 30 38
-0.39 -0.07 -0.59 20 22 9
-0.41 -0.06 -0.62 20 22 9
-0.37 0.25 -0.75 68 75 85
-0.48 0.16 -1.07 77 73 64
-0.15 0.03 -0.14 35 26 29
-0.38 -0.10 -0.58 34 30 27
-0.29 0.18 -0.55 253 255 224
-0.32 0.22 -0.62 253 255 224
-0.06 -0.01 -0.16 117 106 88
-0.43 0.04 -0.85 54 38 39
-0.39 0.24 -0.79 131 141 133
-0.45 0.15 -1.00 45 36 27
-0.33 0.09 -0.66 40 32 30
-0.24 -0.08 -0.56 55 42 36
-0.41 0.13 -0.84 112 101 83
-0.39 0.06 -0.76 118 113 93
-0.42 0.09 -0.83 118 113 93
-0.65 0.45 -1.33 255 255 211
-0.40 0.11 -0.82 49 41 39
-0.42 0.25 -0.85 53 66 56
-0.39 0.26 -0.74 53 66 56
-0.46 0.15 -1.01 53 50 35
-0.02 -0.03 -0.08 82 104 57
-2.54 -1.10 -5.35 49 34 29
-0.94 -0.40 -2.42 27 22 18
-0.27 -0.01 -0.34 22 33 16
-0.44 0.31 -0.98 255 255 232
-0.43 0.19 -0.89 218 212 188
-0.43 0.20 -0.91 218 212 188
-0.51 0.01 -1.22 75 61 60
2.23 1.24 4.70 24 23 18
-0.39 0.10 -0.79 170 176 138
-0.57 -0.09 -1.41 35 21 20
-0.45 0.14 -1.00 69 64 44
-0.37 0.09 -0.73 128 116 94
-0.42 0.20 -0.89 191 190 160
-0.40 0.25 -0.76 54 55 57
-0.42 0.24 -0.85 98 90 77
-0.38 -0.00 -0.69 108 92 69
-0.28 0.20 -0.56 87 104 49
-0.21 -0.04 -0.32 41 24 17
-0.43 -0.01 -0.75 25 21 20
-0.47 -0.04 -1.04 25 21 20
-0.32 -0.14 -0.51 25 28 17
-0.28 0.05 -0.63 249 252 225
-0.44 0.26 -0.94 255 253 254
-0.47 0.16 -1.01 186 185 164
-0.33 0.20 -0.72 161 146 103
-0.39 0.20 -0.80 254 249 230
-0.14 -0.06 -0.32 29 24 20
-0.41 0.14 -0.83 176 168 165
-0.59 -0.01 -1.37 107 101 79
-0.44 0.20 -0.92 251 245 229
-0.35 0.01 -0.67 245 252 208
-0.31 -0.01 -0.64 98 98 70
-1.06 -0.34 -2.64 52 36 23
-0.39 0.02 -0.72 249 255 214
-0.19 -0.14 -0.43 29 28 26
-0.31 0.19 -0.67 125 111 72
-0.35 0.08 -0.72 208 202 190
-1.03 0.32 -2.08 208 202 190
-0.35 0.01 -0.68 252 255 220
-0.42 0.22 -0.85 255 253 243
-0.42 0.19 -0.85 189 179 167
-0.43 0.19 -0.87 189 179 167
-0.13 0.01 -0.10 25 25 23
-0.71 -0.26 -1.77 37 33 22
-0.91 -0.34 -2.25 35 37 26
-0.48 -0.03 -1.03 47 43 34
-0.01 0.07 0.14 32 31 29
-0.48 0.32 -1.03 88 89 71
-0.34 0.24 -0.67 63 60 41
-0.30 0.18 -0.63 117 110 128
-0.41 0.09 -0.79 203 203 193
-0.13 -0.05 -0.28 41 39 24
-0.12 -0.06 -0.26 42 44 33
1.83 1.21 3.71 32 31 27
-0.21 -0.15 -0.48 32 31 27
-0.49 -0.07 -1.02 29 36 20
-1.07 -0.44 -2.62 37 38 22
-0.27 0.14 -0.50 255 255 211
15.94 -9.50 30.02 255 255 211
-0.54 -0.10 -1.29 126 135 118
-0.22 -0.05 -0.34 126 135 118
-0.15 -0.08 -0.32 35 37 36
-0.76 -0.23 -1.85 35 37 36
-0.72 -0.18 -1.71 123 132 113
-0.41 -0.01 -0.66 38 37 35
-0.20 -0.11 -0.47 38 37 35
-0.34 -0.12 -0.55 228 237 172
-0.34 0.22 -0.65 56 59 100
-0.25 0.19 -0.54 61 60 126
-0.23 -0.13 -0.50 54 46 33
-0.29 -0.09 -0.46 54 46 33
3.27 2.48 9.22 30 34 19
-0.51 -0.11 -1.08 17 16 11
-0.40 0.10 -0.79 234 232 211
-0.41 -0.05 -0.61 19 22 5
-0.21 -0.16 -0.34 240 238 243
-0.22 0.14 0.40 208 222 209
-0.05 0.18 0.10 238 236 239
0.05 -0.08 -0.17 75 81 55
-1.13 -0.79 2.26 44 63 33
0.04 0.18 -0.17 224 213 193
-0.07 -0.14 -0.08 203 212 211
0.02 -0.13 -0.18 16 18 7
-1.01 -0.71 1.98 33 46 26
-0.57 -0.38 1.12 40 45 38
-0.89 0.07 1.64 40 45 38
0.01 -0.10 -0.13 62 73 43
-0.32 0.32 0.71 21 19 7
-1.10 0.23 2.33 209 203 205
-0.12 0.14 0.28 142 149 175
0.00 -0.10 -0.12 254 249 253
-0.60 0.43 1.36 245 243 244
-0.25 -0.18 -0.23 25 26 20
-0.36 -0.21 0.71 233 225 206
-0.63 0.29 1.18 22 29 13
-0.29 0.05 0.57 62 69 75
-1.07 -0.25 2.13 89 101 65
0.02 0.24 -0.25 89 101 65
-0.15 -0.13 0.02 217 217 217
-0.12 0.28 0.13 192 197 203
-0.32 0.29 0.71 20 22 11
0.05 -0.08 -0.17 244 242 243
-0.01 0.11 0.07 155 162 181
-0.19 0.19 0.44 249 255 243
0.03 0.26 -0.31 50 54 40
0.01 -0.10 -0.05 50 54 40
-0.30 0.07 0.61 162 162 170
-11.89 3.37 31.79 98 102 114
-0.01 0.12 0.07 215 217 216
-0.72 0.19 1.44 226 224 229
-0.22 -0.15 -0.32 226 224 229
-0.22 -0.15 -0.32 239 237 240
-0.70 -0.03 1.11 159 165 187
-0.52 0.14 0.98 159 165 187
-0.03 0.10 -0.00 184 195 181
-0.23 -0.17 0.46 184 195 181
0.02 0.17 -0.13 127 132 135
-0.58 -0.04 0.82 102 119 49
-0.01 -0.13 -0.18 151 162 180
-0.19 0.05 0.41 140 155 174
-0.05 -0.16 -0.18 30 31 25
-0.17 0.19 0.23 143 152 181
-0.55 0.23 1.20 140 152 166
-0.01 0.14 -0.06 74 71 90
-0.25 0.25 0.10 58 60 47
-0.07 -0.16 0.05 58 60 47
-0.08 -0.18 -0.25 234 245 231
-0.54 -0.00 0.88 70 63 45
-0.01 0.02 0.02 43 48 44
-0.05 0.11 0.16 231 211 187
-0.04 0.22 -0.11 178 186 189
-0.11 -0.17 -0.21 141 155 164
-0.07 -0.17 -0.21 60 61 55
-0.20 -0.18 -0.14 108 112 75
-0.28 0.46 0.77 30 32 27
0.00 -0.07 -0.07 131 146 153
-0.28 -0.05 0.29 17 14 9
-0.11 -0.08 0.17 132 147 152
-0.12 -0.03 0.16 84 80 55
-0.09 -0.07 0.06 84 80 55
-0.38 -0.10 0.68 56 46 34
-0.13 -0.14 0.28 49 50 44
-0.83 -0.03 1.79 237 237 239
-0.65 -0.29 1.28 49 50 54
-0.04 0.14 0.07 48 44 41
0.04 0.15 -0.06 148 153 87
0.01 -0.13 -0.18 79 83 46
-0.09 -0.17 -0.15 21 16 13
0.02 0.22 -0.21 46 52 42
-0.01 -0.13 -0.11 39 49 40
-0.90 -0.60 1.88 58 70 82
-0.07 0.24 0.26 235 218 192
-0.27 -0.09 0.25 30 30 18
-0.16 0.07 0.18 109 114 50
-0.14 -0.17 -0.19 25 26 21
-0.06 0.19 -0.08 154 144 109
-0.69 0.09 1.11 10 9 5
-0.24 -0.17 -0.24 10 9 5
-0.35 -0.17 0.29 37 32 28
-0.19 -0.17 -0.19 37 32 28
0.04 -0.15 -0.23 12 11 6
-0.10 -0.11 -0.04 239 222 194
-0.17 -0.17 -0.04 45 37 35
-0.42 -0.21 0.85 60 54 40
-0.71 0.35 1.72 46 41 38
-0.08 0.05 0.19 73 78 38
-0.86 0.44 1.88 73 78 38
-0.48 0.12 0.89 141 120 77
-0.36 -0.04 0.44 14 13 11
-0.23 -0.19 -0.05 39 30 31
0.04 0.18 -0.20 40 31 32
-1.08 -0.31 2.26 40 31 32
0.01 0.20 -0.17 49 46 39
-0.34 -0.06 0.47 74 72 47
-0.06 -0.08 0.12 98 115 37
0.03 -0.12 -0.22 38 35 30
-0.15 -0.17 -0.03 38 35 30
-0.29 0.14 0.62 65 80 41
-0.15 -0.02 0.31 42 32 30
-0.75 0.36 1.56 55 62 18
0.02 -0.03 -0.06 99 112 42
-0.17 -0.18 -0.12 42 37 31
-0.72 0.28 1.76 47 36 42
-2.93 -2.60 7.21 47 36 42
-0.15 -0.04 0.29 47 35 35
-0.16 0.23 0.32 47 35 35
-0.44 -0.20 0.51 43 33 34
-0.05 -0.16 -0.24 46 34 38
-0.07 -0.16 -0.23 44 33 39
-0.17 -0.17 -0.17 120 119 114
-0.55 0.02 0.98 106 114 67
-0.14 -0.17 -0.16 16 10 12
-0.12 0.21 -0.09 71 85 32
0.03 0.30 -1.05 78 85 91
-0.57 -0.27 1.24 59 76 42
-0.06 -0.16 -0.23 131 123 121
-1.30 0.91 3.44 138 128 126
-0.28 -0.28 0.15 36 34 39
-0.07 -0.04 0.16 47 37 35
-0.17 0.23 0.34 51 36 41
-0.09 -0.17 -0.26 137 128 119
-0.16 0.26 -0.23 67 61 39
0.02 -0.05 -0.08 42 40 41
-0.10 -0.16 -0.22 37 31 35
-0.07 -0.16 -0.22 142 127 120
-0.33 -0.25 0.64 52 43 44
-0.09 -0.16 -0.18 55 46 47
-0.05 -0.15 -0.23 152 138 127
-0.08 -0.09 -0.01 69 69 69
-0.84 -0.52 1.91 63 67 66
-0.25 -0.26 0.13 52 48 49
0.02 -0.16 -0.26 14 17 8
-0.21 -0.16 -0.27 66 69 40
-0.03 -0.14 -0.07 62 70 46
-0.46 -0.38 1.02 65 49 52
-0.13 -0.21 0.30 137 165 204
-0.05 0.24 -0.22 68 49 51
-0.67 -0.26 1.49 224 229 235
-0.12 0.12 0.08 204 218 219
-0.21 0.07 0.26 238 247 242
-1.93 -2.50 5.11 146 169 201
-1.93 -2.50 5.11 146 169 201
-0.22 0.14 0.24 82 95 51
0.03 0.04 -0.08 91 103 55
-0.16 -0.18 -0.22 55 58 37
-0.44 -0.06 1.02 72 101 45
-0.16 -0.19 0.31 124 126 115
-1.31 1.09 3.79 119 118 114
-0.09 0.20 -0.09 45 53 40
-0.36 0.16 0.39 131 161 195
-0.17 -0.21 0.33 64 79 46
-0.08 -0.16 -0.25 131 128 121
-0.23 0.04 0.46 159 170 130
-0.11 0.35 0.33 159 170 130
-0.56 -1.02 1.61 231 237 237
-0.11 -0.15 -0.23 142 141 123
-0.46 0.11 1.13 149 146 129
-3.48 -4.87 9.63 143 175 198
-0.01 -0.13 -0.22 133 128 122
-0.04 0.15 0.10 132 130 118
-0.07 0.15 0.18 132 128 119
-0.08 -0.15 -0.24 134 129 123
-0.04 -0.11 0.08 144 169 176
0.03 -0.09 -0.16 51 39 25
-0.18 0.24 0.09 145 140 121
-1.56 0.86 4.27 131 130 136
-0.04 -0.15 -0.22 117 129 91
0.01 -0.09 -0.08 131 147 98
-0.12 0.06 0.31 159 168 139
-0.31 0.25 0.84 138 137 133
-0.18 -0.21 0.33 131 124 108
0.02 -0.03 -0.06 133 124 107
-0.01 -0.14 -0.30 139 138 143
0.00 -0.10 -0.15 32 40 25
0.00 -0.10 -0.15 32 40 25
-0.20 -0.13 -0.36 44 47 30
-0.01 -0.02 0.03 140 134 122
-0.16 -0.16 -0.32 71 84 41
0.03 -0.04 -0.10 136 139 146
-1.42 -1.27 3.71 128 150 103
-0.36 0.02 0.73 42 46 29
-0.52 -0.01 0.60 240 220 195
-0.14 0.42 0.58 44 49 52
-0.30 0.19 0.70 232 221 201
-0.96 1.04 3.06 22 32 33
-0.20 -0.28 0.54 147 160 166
-0.19 0.35 0.68 68 77 72
-0.14 0.01 0.29 79 97 119
-0.02 -0.13 -0.07 114 138 62
0.00 -0.08 -0.11 36 45 44
0.05 -0.02 -0.12 148 151 132
0.02 -0.12 -0.23 148 151 132
0.02 0.01 -0.05 137 139 151
-0.56 -0.00 1.16 102 113 119
-0.19 0.12 0.52 84 96 120
-0.23 0.03 0.38 232 225 206
-0.16 -0.13 -0.28 86 77 70
-0.02 -0.12 -0.25 79 71 60
-0.61 0.05 1.25 46 52 52
0.01 -0.11 -0.18 46 52 52
-1.04 -0.80 2.83 119 143 85
0.03 0.02 -0.08 133 148 53
-1.03 -0.23 3.05 133 148 53
-0.14 -0.15 0.27 136 139 144
-0.02 -0.11 -0.31 140 143 152
-0.19 -0.16 -0.42 107 126 107
-0.79 -1.11 2.54 135 138 143
-0.18 -0.14 0.14 108 95 78
-0.15 -0.13 -0.27 108 96 80
-0.19 0.13 0.49 244 237 218
-0.62 -0.13 1.10 93 105 117
-0.90 1.16 2.93 63 73 49
-0.43 -0.24 1.15 139 157 171
-0.03 -0.04 0.06 138 141 146
-0.59 -0.03 1.07 73 84 76
-0.15 -0.14 -0.13 63 54 37
-0.18 0.02 0.28 236 216 189
-0.03 0.21 0.14 61 70 75
0.01 0.14 0.09 217 218 187
-0.18 0.08 0.33 64 84 49
-0.09 0.25 -0.39 41 51 40
-0.00 0.04 -0.00 41 51 40
-0.03 -0.05 0.09 62 76 63
-0.77 -0.51 2.20 62 76 63
-0.16 0.16 0.15 62 76 63
0.56 0.41 -3.28 124 145 70
-0.54 0.24 1.71 35 36 28
-4.53 2.93 16.52 91 89 76
0.00 -0.02 -0.03 90 84 72
-0.11 0.13 0.37 73 61 47
-1.72 -0.46 5.72 65 74 45
-0.43 0.51 1.59 120 133 152
-0.12 0.05 0.34 121 133 149
-0.35 -0.00 0.48 33 35 21
0.11 0.44 -1.80 141 145 156
0.03 0.00 -0.08 47 42 36
-0.02 0.31 -1.12 136 167 198
-0.48 -0.02 0.95 30 39 46
-0.20 -0.09 0.54 108 127 71
-0.09 -0.06 0.25 108 127 71
-0.83 -0.66 2.48 76 82 44
-0.22 -0.11 0.07 86 104 126
-0.15 -0.16 -0.33 84 103 120
0.02 0.23 -0.15 84 103 120
-0.32 -0.08 0.84 36 22 22
-5.79 -7.07 19.88 132 139 149
-0.12 -0.12 -0.27 139 143 152
3.42 6.06 -16.67 130 138 140
-0.12 -0.05 -0.47 116 99 92
-0.14 -0.16 -0.23 61 50 46
-0.03 -0.05 -0.02 61 50 46
-0.13 0.34 0.61 61 50 46
-0.09 0.17 -0.05 61 71 72
0.03 0.07 -0.07 150 113 84
0.03 0.13 -0.03 66 55 51
-0.05 -0.10 -0.32 71 63 60
-0.02 -0.10 -0.37 95 77 63
-0.08 0.03 0.25 173 151 114
-0.11 0.38 0.52 78 57 40
-0.01 0.13 -0.12 128 153 111
-0.01 0.15 -0.12 98 120 38
-0.14 0.21 -0.20 124 135 153
-0.11 -0.17 0.27 124 135 153
-0.00 -0.11 -0.23 126 93 62
-0.58 -0.85 1.97 120 143 97
-0.11 -0.11 0.19 65 51 40
-0.51 0.34 1.84 53 41 29
-0.31 0.05 0.79 49 39 30
-0.10 0.07 0.29 39 28 22
-0.21 -0.12 -0.39 39 28 22
-0.19 -0.12 -0.52 34 26 24
-0.55 -0.00 1.87 136 146 156
-0.46 0.09 0.90 34 30 31
-0.17 -0.13 0.33 59 49 40
-0.63 0.15 1.96 140 116 90
-0.01 -0.13 -0.34 140 116 90
-0.22 0.09 0.70 62 49 41
-0.02 -0.13 -0.37 57 49 38
-1.26 -0.32 3.60 63 50 34
-0.21 -0.13 0.45 53 40 34
-0.06 -0.15 -0.34 54 40 31
0.51 1.07 -3.27 55 46 47
-0.01 -0.14 -0.36 47 39 28
0.03 -0.09 -0.19 57 43 34
0.01 -0.07 -0.16 41 31 30
-0.47 0.46 1.47 39 42 21
-0.08 -0.09 -0.35 50 46 45
-0.09 -0.11 -0.35 47 39 36
-0.03 0.02 0.07 29 22 16
0.94 1.50 -4.68 52 42 43
-0.04 -0.10 -0.07 52 44 42
-1.62 -0.29 5.15 44 37 31
-1.62 -0.29 5.15 44 37 31
-0.15 0.01 0.39 70 56 45
0.04 0.09 -0.04 70 49 32
0.01 0.24 -1.32 47 42 39
-0.08 -0.12 -0.13 70 51 34
-0.02 0.32 -1.25 46 42 43
0.06 0.21 -1.46 52 41 35
-0.06 0.11 -1.00 52 41 37
0.02 -0.01 -0.06 62 45 37
0.00 0.06 0.06 233 217 191
-0.40 0.69 1.56 233 217 191
0.00 0.06 0.06 233 217 191
0.13 0.36 -1.87 143 172 180
-0.08 -0.17 -0.28 30 22 19
-0.13 -0.02 0.28 70 54 39
0.07 0.47 -1.77 53 48 44
-0.04 -0.13 -0.36 43 36 26
-0.00 -0.09 -0.24 48 36 38
-0.01 0.19 -0.24 48 43 40
-0.13 -0.06 -0.41 46 41 45
0.57 -0.13 -3.73 42 40 41
-0.07 0.17 -0.94 42 40 41
-0.01 0.19 -0.20 53 44 37
0.24 0.48 -2.12 45 36 37
-0.06 -0.12 -0.17 80 83 56
-0.10 0.09 -0.76 50 46 45
-0.12 0.03 0.38 46 35 33
-0.20 -0.09 0.36 46 35 33
-0.03 -0.01 0.07 148 174 191
-0.07 0.00 0.20 61 69 48
-0.07 0.14 -0.96 50 41 44
-12.27 2.05 53.23 44 37 44
-1.35 -0.89 4.52 43 41 46
-0.00 -0.08 -0.20 52 55 44
-0.31 -0.54 1.11 52 55 44
-0.03 -0.06 -0.01 57 42 35
-0.13 -0.18 -0.33 28 32 15
-0.00 -0.18 -0.34 28 32 15
-0.08 -0.12 -0.34 66 46 39
-0.40 -0.30 1.05 67 48 41
-0.04 -0.10 -0.13 61 47 44
-0.06 -0.07 0.08 53 48 44
-0.13 0.23 0.57 36 39 20
0.04 0.07 -0.01 193 195 194
-0.04 0.25 -0.38 61 65 48
-0.16 0.28 0.67 34 31 38
1.46 2.53 -6.97 114 94 96
-0.66 -0.86 2.43 173 176 185
-0.09 0.16 -0.83 144 141 148
-0.22 0.21 0.72 28 31 12
1.47 0.70 -8.10 90 96 68
0.04 -0.07 -0.17 200 203 160
0.01 -0.03 -0.06 71 72 54
2.18 5.75 -11.81 149 172 203
-0.19 0.12 0.15 144 163 135
1.35 -0.38 -7.05 153 148 152
-0.15 0.16 0.56 36 50 50
-0.01 -0.09 -0.16 145 174 204
-0.48 -0.30 1.71 147 148 153
-0.16 -0.13 0.14 96 80 65
-0.38 0.90 2.27 117 118 100
-0.09 -0.11 -0.35 114 97 89
-0.08 0.20 -0.21 67 77 53
-0.21 -0.18 0.35 163 163 171
0.02 -0.09 -0.21 84 91 75
-1.14 -0.82 4.29 81 84 55
-0.07 -0.06 0.20 151 154 163
-0.16 -0.10 0.23 154 154 164
0.07 0.23 -1.69 65 69 44
-0.32 0.72 2.14 149 149 157
-0.01 0.21 -0.18 167 166 172
-0.15 -0.06 -0.66 167 166 172
0.01 -0.02 -0.06 162 161 167
-0.08 0.25 0.51 147 157 169
-3.70 3.72 15.49 137 139 151
-0.10 -0.10 0.06 213 208 205
-0.47 -0.51 1.74 247 237 227
-0.07 0.08 0.26 176 186 198
-0.07 -0.03 0.17 169 164 168
-0.15 -0.11 0.16 183 179 180
-0.11 -0.12 -0.12 79 72 64
2.79 2.04 -20.16 71 81 57
-0.10 0.25 -0.87 88 99 67
-0.05 0.28 0.36 150 150 158
0.00 0.17 -0.24 147 175 179
-0.07 -0.09 -0.01 221 213 210
-0.14 -0.11 -0.05 164 164 166
-0.03 0.15 0.26 99 84 91
-0.17 -0.45 0.65 82 101 79
0.03 0.10 -0.14 255 248 240
-0.06 -0.04 0.23 160 160 162
-0.32 -0.32 1.12 255 250 246
-0.17 -0.46 0.67 89 104 97
0.01 0.15 -0.21 175 193 195
1.09 4.81 -9.52 188 201 218
-0.40 0.65 1.71 244 228 192
-0.09 -0.01 -0.47 90 98 83
-0.02 -0.09 -0.16 87 82 78
-0.44 -0.48 1.78 253 246 238
-0.06 0.21 -0.04 243 236 230
0.81 1.77 -4.90 155 164 173
0.19 0.39 -3.14 102 100 85
-0.15 -0.03 -0.79 165 145 110
-0.16 -0.12 -0.46 126 110 97
-0.03 -0.08 0.15 207 217 227
-0.06 -0.10 -0.18 208 209 204
-0.19 -0.16 -0.39 80 70 58
-0.03 -0.08 -0.25 110 93 77
1.25 -0.91 -7.82 249 234 193
0.02 -0.08 -0.22 131 113 91
0.04 -0.02 -2.36 103 97 97
-0.37 -1.96 3.46 255 255 255
2.25 2.15 -19.57 99 107 92
-0.06 0.25 -1.28 99 107 92
-0.03 -0.08 -0.38 120 111 104
-0.36 0.27 1.66 149 131 109
-0.56 -0.74 2.60 93 89 88
-0.17 -0.09 0.53 137 113 85
0.04 0.07 -0.01 210 214 215
-0.08 -0.12 0.36 162 182 209
-0.03 -0.08 -0.23 179 163 129
-0.20 0.12 0.89 91 83 81
-0.43 -0.40 1.87 89 88 86
-0.20 -0.12 0.71 230 206 172
-0.31 -0.21 1.40 105 89 73
-0.07 0.21 -0.42 138 124 113
-0.02 0.24 -0.37 255 255 255
-0.05 -0.05 0.21 230 233 240
-0.07 -0.06 0.26 230 233 240
-0.50 -0.13 2.87 90 80 70
-0.09 -0.17 -0.37 66 53 34
-0.20 0.11 0.87 134 121 105
0.03 -0.00 -0.08 146 154 165
-0.17 -0.09 0.59 245 222 180
-0.13 -0.07 0.07 117 95 71
-73.89 -31.25 352.64 139 127 111
-0.04 0.18 -0.22 161 181 206
-0.04 -0.09 -0.13 242 220 181
-0.11 0.23 -0.61 110 93 67
-0.18 0.12 0.99 129 108 79
-0.15 -0.04 0.58 129 108 79
-0.14 -0.11 -0.23 124 103 74
-0.51 0.16 1.64 97 74 56
-0.33 0.07 0.86 82 69 52
-0.08 -0.05 0.10 94 78 53
0.13 0.87 -2.91 128 116 100
0.13 0.87 -2.91 128 116 100
-0.45 -0.38 2.09 135 117 105
-3.83 -1.27 19.81 134 121 104
0.24 1.64 -3.72 169 187 209
0.12 0.47 -2.95 165 185 209
-0.06 -0.03 -0.42 223 222 228
6.48 12.56 -34.57 168 185 205
-0.09 -0.10 0.24 102 82 57
-0.33 0.09 1.84 124 101 70
0.03 -0.04 -0.13 95 73 59
-0.16 -0.42 0.72 218 219 221
-0.14 -0.12 0.17 119 95 57
-0.01 -0.04 0.06 233 231 232
-0.10 -0.05 0.50 135 123 111
-0.01 0.17 -0.30 135 123 111
-0.33 0.04 1.96 128 105 73
-0.08 0.13 0.06 215 194 165
-0.09 0.11 -0.00 244 244 244
-0.21 -0.28 0.95 244 244 244
-0.40 -0.07 1.98 90 70 43
0.01 0.10 0.12 84 65 50
-0.03 -0.07 -0.11 132 107 77
1.42 -0.43 -9.17 132 107 77
0.11 1.94 -4.05 229 232 239
-0.20 -0.10 0.55 123 101 78
-1.24 -1.68 6.36 221 224 233
-0.07 -0.25 0.24 221 224 233
-0.23 0.02 1.37 132 119 103
-1.61 -4.45 9.90 254 254 254
-0.08 -0.03 0.31 78 60 36
-0.00 -0.00 0.02 113 92 65
-1.42 0.02 5.89 93 76 60
-0.29 0.74 2.28 93 76 60
0.04 0.01 -0.06 192 164 127
0.83 6.99 -16.55 205 209 218
-0.03 0.11 -0.04 136 124 110
-0.03 0.10 -0.06 234 237 244
-0.08 -0.01 -0.46 250 245 216
-0.12 -0.02 0.60 120 97 66
-0.85 0.15 3.27 108 90 68
-0.05 -0.00 0.24 131 102 68
-0.19 -0.02 0.90 131 102 68
-0.07 0.11 0.48 114 87 57
-0.35 0.06 2.46 128 104 70
-0.20 -0.13 1.00 129 104 74
0.01 0.27 0.12 59 50 51
-0.18 -0.10 -0.13 131 105 72
0.01 0.12 -0.17 255 255 255
-0.16 -0.48 0.88 242 234 211
-0.08 0.21 -0.53 141 112 72
-0.06 0.02 0.35 127 103 75
-0.04 0.18 -0.36 112 91 64
-0.20 -0.07 -0.41 104 82 68
-0.03 0.10 0.05 136 110 77
-0.17 0.00 -0.58 87 66 37
-0.04 0.10 0.01 134 120 107
-0.28 -0.17 1.60 146 126 101
0.01 -0.03 -0.11 101 84 64
-0.09 0.18 0.61 79 66 50
-0.08 0.23 -0.40 201 209 220
0.01 -0.03 -0.11 111 89 66
-0.15 -0.10 -0.06 125 100 70
-1.14 -0.91 7.86 139 124 105
0.01 -0.03 -0.12 112 92 68
0.04 0.03 -0.05 150 128 107
-0.34 -0.23 2.10 202 206 217
-0.03 0.12 0.32 63 51 39
0.03 0.05 -0.02 63 51 39
-0.02 0.10 0.24 61 48 32
-0.17 -0.10 -0.22 61 48 32
-0.02 0.11 0.25 57 43 30
-0.17 -0.10 -0.22 57 43 30
-2.04 2.05 10.23 46 37 30
0.05 0.36 -1.90 231 231 233
-0.03 0.35 -1.77 127 103 75
0.01 -0.03 -0.12 118 97 70
-0.17 -0.10 -0.22 66 49 33
-0.02 0.10 0.24 65 49 34
-0.17 -0.10 -0.22 65 49 34
-1.90 0.42 8.52 43 33 23
-0.02 -0.14 -0.31 46 41 37
-0.07 0.14 0.57 117 93 65
-0.22 0.20 1.20 45 47 36
-0.01 0.00 0.04 45 47 36
-0.01 0.00 0.04 45 47 36
0.03 0.01 -0.06 101 83 63
-0.01 0.20 -1.74 138 122 109
-0.16 -0.06 0.91 135 110 80
-0.02 0.10 0.24 71 51 27
-0.02 0.10 0.24 85 63 39
-0.13 -0.11 -0.30 78 57 38
0.02 0.01 -0.04 252 248 239
-0.02 0.09 0.23 84 64 37
0.03 0.01 -0.07 158 135 104
-0.08 0.14 0.64 85 63 39
-0.08 0.14 0.64 85 63 39
-0.05 0.00 0.14 84 70 59
-0.79 1.35 5.08 84 70 59
0.03 0.09 0.05 82 71 75
1.02 1.34 -8.45 191 199 212
-0.13 0.13 0.56 134 109 69
-0.14 0.18 -0.91 137 121 106
-0.11 -0.08 0.66 131 105 72
-0.49 -0.21 2.94 138 112 79
-0.02 0.16 -0.22 126 105 76
-0.07 0.13 0.60 90 70 45
-0.07 0.13 0.60 90 70 45
-0.14 0.08 0.66 107 90 70
-0.03 0.08 -2.13 142 113 73
-1.97 -1.04 11.13 129 105 79
-0.06 0.12 0.50 94 73 46
-0.06 0.12 0.50 94 73 46
-0.08 0.13 0.67 92 70 46
-0.07 0.12 0.59 92 70 46
-0.13 -0.10 -0.20 123 103 79
-0.22 -0.02 1.51 111 90 59
0.65 0.95 -5.22 120 97 66
-0.23 0.09 1.47 91 71 46
-0.17 0.10 1.14 91 71 46
-0.07 -0.10 -0.30 91 69 45
-0.07 0.12 0.56 91 69 45
-0.13 -0.10 -0.20 123 101 77
0.05 0.14 0.00 114 93 66
-0.03 0.16 -0.22 137 107 73
-0.39 0.22 1.55 35 40 43
0.04 0.04 -0.03 226 217 220
-0.91 -1.04 5.54 162 141 120
-0.83 -0.95 5.04 162 141 120
-0.04 0.11 -0.02 136 120 104
-0.30 0.01 2.38 108 88 55
-0.28 0.05 1.69 80 58 35
-1.26 -0.03 6.63 121 93 71
-0.03 0.21 0.27 122 97 75
-0.03 0.21 -1.68 137 119 105
-0.09 -0.18 0.40 134 120 107
-0.01 0.05 0.03 152 131 104
-0.49 -0.22 3.08 138 112 77
-0.15 0.03 -0.70 132 105 78
-0.20 -0.09 1.08 108 84 58
-0.73 0.28 4.59 119 97 76
0.01 -0.02 -0.13 124 100 74
-0.03 0.10 -0.09 249 247 250
-0.02 0.14 0.33 103 82 61
-0.02 0.15 0.36 94 76 54
0.04 0.36 -1.91 233 233 233
0.95 1.65 -7.91 136 109 82
0.02 0.08 -0.02 104 81 63
-0.01 -0.09 0.01 242 242 244
-0.12 -0.10 -0.17 106 84 60
-1.68 -2.20 10.64 130 117 101
-0.04 0.29 -1.78 114 93 64
0.02 0.06 -0.15 121 99 60
0.04 0.04 -0.03 116 97 82
0.49 0.66 -4.76 105 81 55
-0.31 0.01 1.61 127 101 74
0.04 0.07 0.00 242 238 227
-0.15 0.02 -0.60 135 109 76
-0.06 -0.09 -0.25 133 106 77
-0.02 0.17 0.19 133 106 77
-0.04 -0.16 -0.41 72 62 53
0.04 0.04 -0.05 103 83 59
-0.15 0.16 1.48 124 99 68
-0.06 -0.11 -0.11 237 237 237
-0.04 0.18 0.50 72 55 37
-0.13 -0.16 0.44 120 94 59
15.92 -12.65 -119.30 102 84 62
-0.19 -0.08 0.55 100 80 55
-0.00 0.11 0.21 75 58 38
-0.66 -1.00 4.44 198 206 219
-0.02 0.16 0.37 79 61 39
-0.24 0.29 1.05 176 149 119
0.19 -1.68 -11.25 107 87 62
-0.02 0.15 0.36 76 60 35
-3.53 -5.07 24.03 135 119 104
-0.14 0.04 1.02 137 107 69
0.01 -0.02 -0.20 137 107 69
-0.03 0.08 0.08 138 110 71
-0.04 -0.18 0.26 249 249 249
-0.20 -0.08 -0.60 86 71 64
-0.03 0.13 0.41 86 64 40
-0.00 -0.08 -0.29 77 57 32
-0.16 -0.03 0.67 77 57 32
-0.49 0.30 1.66 94 76 62
0.11 -0.49 -5.90 129 108 81
-0.03 0.13 0.40 89 65 41
-0.01 -0.01 0.03 131 110 83
-0.13 -0.13 0.02 140 110 72
-0.22 -0.06 -0.17 119 94 74
-0.08 0.12 0.71 119 98 79
-0.10 -0.10 -0.30 123 103 79
-0.16 0.20 1.88 93 73 49
-0.75 -0.54 4.91 122 100 76
-0.04 0.00 0.26 137 109 72
0.18 0.25 -2.76 93 72 43
-0.01 -0.06 -0.17 239 239 239
-0.09 0.28 -1.41 239 239 239
-1.31 0.10 8.59 106 86 61
-0.03 0.10 0.41 103 81 58
-0.00 0.09 0.14 103 81 58
-0.16 0.04 -0.78 90 69 40
-0.16 0.04 -0.78 90 69 40
-1.66 -2.37 12.63 246 217 187
-0.38 0.39 1.60 243 219 171
-0.46 1.07 3.11 243 219 171
-0.06 0.12 0.59 111 86 64
-0.10 -0.11 -0.24 96 79 59
2.90 4.95 -23.08 147 127 92
-0.11 -0.15 0.82 143 112 66
0.12 1.24 -2.93 245 245 245
-0.03 -0.07 -0.06 142 113 71
0.01 -0.02 -0.20 142 113 71
-0.38 -0.21 3.69 111 78 43
-0.15 0.19 -1.07 155 133 112
105.55 156.73 -876.73 99 74 44
-0.29 -0.10 2.51 124 99 69
0.16 -3.89 8.05 245 245 245
-0.74 -0.81 6.14 124 98 61
-0.17 0.16 1.04 65 49 34
-0.22 0.12 1.32 70 53 35
-0.22 0.12 1.30 72 57 38
0.05 0.08 -0.01 163 136 125
0.05 0.08 -0.01 163 136 125
-0.08 0.10 0.72 84 62 41
-0.69 -0.96 5.64 145 123 99
-0.14 -0.22 0.27 141 113 73
-0.17 -0.07 -0.16 123 97 72
0.84 0.73 -8.24 138 105 64
-0.01 -0.04 -0.08 137 110 80
-0.06 0.04 -2.42 123 97 64
-0.14 -0.03 -0.60 99 79 52
-0.07 -0.08 -0.13 127 102 72
-0.01 -0.00 0.07 127 102 72
-1.54 -2.39 13.74 226 205 176
-1.54 -2.39 13.74 226 205 176
-0.05 0.23 -1.63 145 132 123
-0.11 0.03 1.13 96 76 52
-0.09 -0.09 -0.46 153 133 109
-0.03 -0.02 -0.35 214 190 162
-0.02 0.14 -0.14 144 123 94
0.04 0.07 0.00 193 187 187
-0.38 -0.81 3.31 149 135 126
0.00 0.11 -0.22 142 113 69
-0.31 -0.21 3.03 102 79 47
0.05 0.08 -0.01 110 87 79
-0.11 -0.04 -0.36 140 108 67
-0.16 0.22 -0.93 214 190 156
-0.01 -0.01 0.07 129 101 61
-0.23 -0.11 -0.68 197 174 124
-0.23 -0.12 -0.65 189 163 126
0.94 2.09 -9.88 143 129 118
-0.13 0.24 -1.31 146 131 124
-0.28 -0.19 2.64 84 58 35
-0.37 -0.45 6.18 112 88 54
-0.12 -0.17 1.15 112 88 54
-0.06 -0.16 0.59 150 136 125
-0.12 -0.10 0.88 147 134 128
-0.38 -22.14 55.17 146 133 124
-0.11 -0.61 1.51 146 133 124
-0.02 0.03 0.09 218 194 160
-0.55 -0.94 5.58 137 108 66
-0.27 -0.24 3.51 133 105 66
-0.08 0.51 -1.86 114 88 55
-0.03 -0.04 0.04 130 107 76
-0.16 0.19 -1.17 152 128 92
