ply
format ascii 1.0
element vertex 1300
property float x
property float y
property float z
property uchar red
property uchar green
property uchar blue
end_header
0.70 -0.12 -1.38 243 237 215
-6.25 -0.86 13.53 241 237 225
2.83 -0.79 -5.02 126 112 109
0.80 -0.66 -1.69 250 235 212
2.45 -0.70 -4.43 250 235 212
-4.50 -1.00 9.89 135 111 109
0.76 0.03 -1.55 135 111 109
-2.23 -0.29 5.11 244 235 230
-1.09 -0.06 2.69 249 244 212
-4.09 -2.36 8.40 86 74 88
-4.09 -2.36 8.40 86 74 88
-4.08 -2.54 8.42 221 208 199
-3.47 -0.01 7.23 26 27 22
1.26 0.48 -2.76 246 241 235
-2.54 -0.03 5.58 246 247 241
-3.98 -2.26 8.32 193 188 168
-3.34 0.76 7.03 38 31 25
-3.36 0.06 7.06 216 201 162
0.88 0.07 -1.87 186 179 161
0.88 0.42 -1.97 67 74 67
-4.06 -2.59 8.58 67 74 67
-3.85 -2.09 8.16 245 231 220
0.71 0.17 -1.58 245 231 220
0.70 -0.48 -1.50 241 230 224
1.22 -0.86 -2.71 82 86 87
-3.97 -3.06 8.46 179 184 188
0.75 -0.06 -1.61 251 252 247
0.89 -0.09 -1.94 25 18 25
-6.04 -2.55 12.69 25 18 25
0.79 -0.10 -1.73 246 236 224
11.80 5.80 -23.64 246 236 224
2.31 -0.07 -3.93 163 160 167
-3.95 -2.84 8.51 131 119 107
-3.80 -2.09 8.26 232 218 205
-16.19 1.26 38.05 252 247 241
0.83 -0.01 -1.88 252 247 241
0.98 -0.14 -2.12 71 75 76
-2.92 2.06 6.45 185 170 165
0.91 -0.19 -1.41 238 221 211
-3.08 0.98 6.86 32 32 34
-2.37 -0.46 5.65 82 71 51
0.98 -0.09 -2.11 70 63 79
0.84 -0.38 -1.70 84 81 88
0.76 -0.32 -1.52 84 81 88
-3.07 0.39 6.99 218 200 196
-3.07 0.39 6.99 218 200 196
-3.57 -1.89 8.11 79 80 82
-3.57 -1.89 8.11 79 80 82
0.73 -0.30 -1.51 33 29 28
-2.97 0.91 6.84 49 38 42
-2.78 1.68 6.45 144 143 141
4.29 -0.19 -10.59 248 242 220
-3.06 -0.17 7.18 131 127 128
-3.69 -3.14 8.62 177 173 164
0.84 -0.24 -1.63 36 30 32
-3.24 -1.27 7.67 126 122 123
0.60 -0.38 -1.39 177 163 163
2.51 -0.35 -6.31 218 211 192
-2.83 1.45 7.33 69 67 70
-2.69 1.82 6.49 63 54 57
-2.95 -0.01 7.16 83 75 72
3.88 0.48 -6.56 28 28 30
-2.82 1.20 6.91 28 28 30
1.09 0.42 -2.86 227 227 219
1.90 -1.48 -4.65 254 248 250
3.30 0.79 -7.71 246 235 213
1.87 0.47 -4.34 246 235 213
0.95 0.37 -2.52 63 52 48
-3.08 -0.77 7.79 193 184 189
5.16 3.48 -13.35 185 172 166
1.08 0.36 -2.95 185 172 166
-3.66 -3.19 9.30 229 227 228
-2.79 1.02 7.15 44 46 45
-2.18 0.96 5.44 28 26 11
0.72 -0.58 -1.96 233 230 211
2.95 0.23 -7.87 240 230 218
-2.74 0.27 7.25 98 95 102
-2.64 0.93 7.06 150 148 149
-2.62 1.17 7.05 175 176 181
0.61 -0.40 -1.70 175 176 181
-3.25 -2.26 8.62 165 165 165
-3.25 -2.26 8.62 165 165 165
-2.05 -1.74 5.68 17 19 16
-2.55 1.62 6.95 34 30 31
1.94 1.11 -5.69 146 144 147
0.57 -0.23 -1.62 230 217 200
1.09 -0.63 -3.17 230 217 200
1.66 1.51 -4.85 127 126 142
-3.23 -3.38 8.83 127 126 142
5.93 -5.40 -16.29 49 48 44
4.92 -1.10 -11.42 25 26 28
-2.77 -0.25 7.79 59 55 54
-2.68 0.12 7.55 107 106 111
-3.17 -1.62 8.58 139 144 150
0.59 -0.08 -1.52 200 199 197
-3.02 -2.12 8.65 161 157 156
-2.74 -0.53 7.92 15 9 11
0.99 -0.86 -3.03 22 22 22
10.27 -7.89 -32.61 22 22 22
-2.34 2.23 6.91 45 39 41
-3.19 -3.24 9.28 149 137 137
-2.35 2.11 6.95 22 16 18
-2.35 2.11 6.95 22 16 18
0.71 -0.73 -2.17 124 115 118
0.56 0.13 -1.69 129 129 129
-2.57 -0.39 7.91 164 163 171
-2.57 -0.39 7.91 164 163 171
-2.32 0.71 7.20 213 186 177
13.21 2.27 -32.49 213 186 177
11.89 -6.18 -40.26 98 98 100
0.59 -0.34 -1.88 158 153 157
-2.53 -0.69 8.09 158 153 157
-2.70 -1.47 8.73 33 32 30
0.83 -0.07 -2.91 33 32 30
-2.26 0.64 7.39 84 83 89
-1.23 -0.44 4.58 145 143 146
1.03 -0.56 -3.51 96 93 100
-1.69 -0.58 5.06 113 109 110
-2.16 0.85 7.29 235 227 214
-2.02 2.27 6.87 245 243 231
0.53 -0.25 -1.36 63 70 78
-2.83 -3.11 9.52 19 8 4
-2.14 0.79 7.40 248 238 213
-1.98 2.26 6.92 31 33 28
-2.44 -0.97 8.47 89 90 95
1.83 -0.98 -6.24 242 226 201
0.51 0.17 -1.98 217 209 198
-0.94 0.58 3.63 251 231 207
-1.54 1.49 5.62 211 197 184
-1.91 2.29 6.89 225 220 198
-1.91 2.29 6.89 225 220 198
0.85 -0.57 -3.01 12 12 14
1.25 -1.21 -4.75 12 12 14
-2.71 -3.70 9.76 181 182 184
-2.71 -3.70 9.76 181 182 184
-15.38 4.77 42.15 218 211 205
-1.18 -0.62 5.19 148 139 140
1.04 0.00 -4.17 148 139 140
-20.46 -7.08 53.01 255 238 221
-2.61 -3.57 9.81 63 58 54
-0.89 -0.80 3.34 172 169 164
0.66 -0.76 -2.78 248 232 217
0.84 -0.45 -2.82 224 213 209
1.33 -0.73 -4.50 224 213 209
-2.22 -1.08 8.59 245 229 216
-2.16 -0.42 8.45 109 104 108
-2.21 -1.71 8.66 225 214 208
-2.08 -0.65 8.53 63 52 48
-2.11 -1.86 8.67 146 130 115
-0.89 -0.64 5.06 149 148 154
-2.07 -1.45 8.78 160 150 149
-1.72 1.11 7.59 131 123 121
-2.15 -2.81 9.84 167 158 163
0.81 0.26 -3.65 93 84 79
-1.94 -0.45 9.02 93 84 79
-1.88 0.09 9.00 110 105 111
-1.77 -0.65 8.58 156 150 150
0.48 -0.02 -2.54 27 17 16
0.62 -0.35 -2.00 226 217 202
0.76 -0.58 -2.73 215 207 186
-1.44 2.24 7.34 114 109 115
-2.00 -2.65 13.52 124 120 117
0.39 0.03 -2.19 161 156 162
-1.82 -2.12 9.32 77 61 61
0.44 -0.14 -2.50 91 82 83
327.31 26.64 -1544.02 98 95 104
-1.50 1.52 7.87 144 141 150
-14.05 -8.42 77.77 161 157 158
-1.20 -0.87 6.31 161 157 158
-1.63 -0.60 8.55 229 208 191
-1.55 0.92 8.18 146 145 151
-1.55 0.92 8.18 146 145 151
0.47 -0.47 -2.03 47 46 44
-44.39 -47.04 224.45 54 45 46
-1.29 2.35 7.23 154 135 131
0.61 -0.01 -2.66 114 109 113
0.50 -0.76 -3.19 114 109 113
-0.32 -0.33 2.83 238 221 211
5.25 -2.31 -36.04 135 109 96
3.05 1.24 -15.29 88 79 82
-0.36 -0.08 3.13 220 203 183
0.61 -0.21 -4.15 220 203 183
0.65 -0.74 -3.26 254 251 242
-1.44 0.73 8.44 179 180 184
-0.68 0.97 5.60 37 26 22
-1.38 0.85 8.46 92 87 91
-1.29 1.52 7.95 121 116 120
-26.24 19.92 115.57 97 90 97
0.47 0.18 -3.59 237 217 208
0.62 0.66 -3.61 71 61 62
0.54 -0.29 -4.21 71 61 62
1.02 -1.76 -6.02 60 51 54
-1.14 1.94 7.69 160 159 167
-1.06 0.58 9.70 225 202 194
12.85 12.53 -65.96 225 202 194
-1.51 -3.19 10.36 18 14 11
-3.68 -1.76 16.79 167 162 166
-1.18 1.07 8.43 209 192 185
0.37 -0.57 -2.93 209 192 185
-1.16 1.32 8.28 176 162 153
-1.24 -1.08 8.80 51 51 53
0.33 -0.23 -2.95 54 48 52
-0.21 -0.17 1.98 189 176 168
1.15 -0.69 -8.92 153 147 149
-1.08 -0.73 8.56 233 216 200
-0.92 2.03 7.48 129 127 128
-0.20 -0.54 3.30 168 168 170
-0.40 0.38 4.47 172 151 146
-1.01 -0.92 8.78 181 164 156
-1.18 -2.73 10.34 40 35 32
0.52 -1.00 -7.22 113 105 103
-0.76 -0.10 3.44 59 57 58
-1.12 -2.42 10.49 97 96 101
-0.84 1.99 8.29 151 157 171
-0.78 2.09 8.33 149 150 155
-0.81 0.50 8.92 173 164 165
-0.74 1.64 8.59 243 214 196
-0.74 1.64 8.59 243 214 196
-0.61 2.40 7.89 230 213 193
1.47 -0.42 -5.46 59 55 56
0.15 0.28 -6.83 100 99 105
4.48 -1.14 -19.10 26 25 21
-0.25 -0.44 3.72 137 135 140
-0.72 -1.39 9.90 137 135 140
0.56 -0.33 -2.87 45 35 33
-0.64 -2.02 10.71 132 130 141
0.59 -4.15 -11.90 252 234 210
0.12 -0.10 1.29 103 101 102
-0.46 -0.19 9.42 131 130 135
-0.41 0.47 9.15 177 173 174
-0.35 2.47 8.40 255 235 209
-0.32 2.44 8.48 239 221 197
0.16 0.82 -6.64 222 205 197
-0.45 -3.32 11.10 138 132 134
-0.42 -2.60 10.77 99 84 79
-0.42 -2.60 10.77 99 84 79
0.20 -0.05 -2.42 148 142 142
-0.51 -0.18 6.33 181 172 175
-0.26 1.29 9.12 181 172 175
-0.06 -4.66 12.28 172 163 148
0.01 -0.30 9.66 188 169 162
0.03 2.55 8.58 245 225 201
0.09 -0.87 10.08 136 134 139
0.08 -3.87 11.78 11 12 7
0.08 -3.87 11.78 11 12 7
0.11 -2.35 11.27 138 138 148
0.12 -0.15 1.37 144 129 124
0.11 -1.46 10.52 146 145 150
-0.20 -0.55 5.61 212 194 190
0.06 0.34 3.51 212 194 190
-0.20 -0.55 5.61 212 194 190
-0.32 2.75 -10.07 196 178 168
0.27 2.37 9.22 111 112 117
-0.22 2.64 12.43 255 243 222
0.12 -0.13 1.51 255 243 222
0.29 0.38 9.63 173 169 170
0.29 0.38 9.63 173 169 170
0.24 -0.15 1.25 204 190 177
0.30 1.82 9.29 99 97 102
0.30 1.82 9.29 99 97 102
0.43 -3.61 11.60 234 237 230
0.17 1.15 7.24 105 93 93
-0.08 0.32 -2.98 191 187 188
2.43 13.12 -108.16 144 142 147
0.07 0.13 1.63 176 170 174
0.18 -0.84 2.64 231 211 210
-1.51 8.77 -27.11 103 92 90
0.17 -0.03 1.44 48 46 47
0.15 -0.31 1.35 223 206 196
0.50 2.57 8.71 255 241 234
0.61 -2.56 12.37 95 93 98
0.58 -0.08 10.04 189 174 171
0.38 -0.28 2.33 212 196 183
0.20 -0.30 1.66 212 196 183
-0.24 1.27 -7.91 136 130 134
0.73 -3.51 11.74 136 131 128
0.22 1.23 4.10 153 142 138
0.10 0.37 2.99 51 44 51
0.08 -0.48 1.81 91 82 85
-0.05 -0.39 -3.04 111 107 108
-1.66 2.03 -20.06 132 131 137
0.84 1.52 9.84 137 135 140
0.98 -4.14 11.98 167 163 162
0.87 -0.61 4.72 167 163 162
0.17 0.12 2.73 41 40 45
-0.90 -3.40 -11.30 119 114 118
-2.14 -0.95 -13.66 54 45 46
0.87 2.76 8.92 44 34 32
1.25 -4.41 12.28 112 95 88
1.14 0.26 10.36 191 182 177
1.14 0.26 10.36 191 182 177
0.25 0.30 1.87 137 111 96
1.24 -1.16 11.25 145 139 141
1.32 -0.43 10.69 204 185 178
1.32 -0.43 10.69 204 185 178
1.34 -0.85 10.86 197 185 173
1.34 -0.85 10.86 197 185 173
1.32 1.33 10.08 231 220 216
0.22 -0.52 2.10 91 86 93
1.62 -2.01 12.23 126 121 127
1.69 -2.65 12.69 86 76 77
0.45 -0.06 2.03 86 76 77
1.68 -2.26 12.38 128 118 126
1.31 3.05 9.12 46 34 36
1.49 1.55 10.18 91 84 78
1.44 2.18 9.69 211 195 180
1.55 0.88 10.35 209 198 196
1.55 0.88 10.35 209 198 196
1.61 1.09 10.36 64 54 62
0.91 0.04 3.47 226 208 198
1.66 1.24 10.46 90 82 79
1.86 -1.29 11.51 57 44 38
1.68 1.15 10.29 234 210 206
0.28 -0.43 1.45 150 136 123
-2.96 -5.40 -16.68 255 243 228
0.36 0.19 2.34 226 222 221
1.81 0.22 12.65 159 140 134
2.12 -3.81 12.27 191 182 183
1.80 1.22 10.16 199 176 160
1.69 2.35 9.48 189 179 169
-14.29 -2.73 -86.02 209 191 181
1.93 1.17 10.21 175 151 141
2.26 -2.03 11.94 192 172 165
2.38 -1.26 12.26 125 116 119
2.38 -1.26 12.26 125 116 119
-2.06 -2.01 -13.26 230 221 216
2.09 0.75 10.55 75 66 61
0.42 -0.04 1.53 200 189 185
-0.82 0.14 -5.04 220 199 194
0.31 0.18 1.47 220 199 194
1.26 -0.33 4.01 98 78 67
2.18 0.77 10.53 215 196 189
0.29 0.09 1.47 157 139 135
2.49 -2.43 12.08 171 166 163
2.56 -0.73 12.28 130 125 129
2.56 -0.73 12.28 130 125 129
2.56 -0.73 12.28 130 125 129
0.94 -0.35 3.84 184 173 177
1.56 -0.59 4.47 195 190 196
2.50 -1.93 11.83 237 216 197
2.50 -1.93 11.83 237 216 197
8.79 -11.21 38.14 135 130 137
2.74 -0.79 12.60 68 67 72
2.71 -0.33 12.17 64 64 64
2.85 -3.61 12.78 126 117 118
5.89 0.08 17.40 30 25 22
2.03 -0.45 6.70 30 25 22
0.30 -0.57 1.47 174 163 169
2.82 -2.99 12.49 187 173 164
2.82 -2.99 12.49 187 173 164
0.29 -0.06 1.29 71 60 68
2.69 -0.13 11.65 229 222 204
2.40 0.99 10.42 94 80 79
0.32 0.04 1.25 203 190 184
0.43 0.17 2.00 118 100 90
-3.95 -4.24 -15.57 118 100 90
2.89 -1.98 12.18 213 204 199
3.17 -4.60 13.37 150 146 147
2.99 -0.52 12.26 81 82 86
2.44 2.50 9.70 203 192 190
2.44 2.50 9.70 203 192 190
0.42 -0.19 0.77 149 150 155
3.35 -4.16 13.47 40 30 28
2.50 2.33 9.81 225 197 183
2.50 2.33 9.81 225 197 183
3.29 -1.48 13.04 44 35 36
0.39 -0.03 1.48 216 203 197
0.36 -0.12 0.91 87 72 67
3.21 -2.79 12.51 165 163 168
0.31 -0.26 1.13 83 71 75
2.63 1.96 9.92 171 167 168
3.57 -4.08 13.66 124 126 125
2.86 0.73 10.70 216 207 202
0.43 -0.16 0.88 73 64 57
-1.56 -0.44 -8.11 20 18 19
0.43 -0.08 1.28 20 18 19
2.93 0.82 10.78 62 56 58
3.33 -0.80 12.14 237 226 230
5.82 0.97 22.76 207 186 183
3.00 0.60 10.84 243 241 229
3.00 0.60 10.84 243 241 229
3.00 0.60 10.84 243 241 229
1.08 0.25 3.38 171 158 149
3.75 3.63 14.55 82 61 44
2.87 2.78 10.02 170 156 155
0.50 -0.11 1.49 138 134 133
0.37 -0.46 1.43 138 134 133
7.19 6.03 28.23 231 211 187
3.10 0.41 10.81 247 240 232
3.71 -1.78 12.73 124 110 110
6.21 -4.31 24.36 214 197 190
3.11 1.88 10.47 160 171 189
3.16 1.59 10.58 164 160 157
0.34 -0.09 1.20 200 187 181
2.55 -0.20 8.66 200 187 181
0.37 -0.13 1.21 173 158 155
3.38 0.24 11.08 201 174 165
0.42 -0.11 1.47 201 174 165
3.35 0.50 10.83 240 240 240
3.17 3.27 10.17 51 50 48
3.32 2.33 10.56 155 149 151
3.47 1.58 10.91 34 28 30
1.09 0.05 3.44 30 24 24
0.37 -0.13 1.23 60 59 67
3.50 1.88 10.74 131 132 137
1.61 -0.63 5.00 125 116 107
3.71 1.13 11.32 116 114 125
1.05 0.29 3.28 254 255 250
3.71 1.26 11.13 169 168 176
0.38 0.27 1.19 83 82 78
4.15 -0.65 12.34 59 50 51
3.70 1.76 10.90 96 98 97
4.19 -0.55 12.25 153 149 148
4.19 -0.55 12.25 153 149 148
4.00 0.78 11.62 19 7 9
3.70 3.05 10.61 210 215 219
3.81 3.58 10.79 124 113 119
3.81 3.58 10.79 124 113 119
5.35 -4.11 15.28 61 56 53
5.35 -4.11 15.28 61 56 53
0.36 -0.15 0.98 52 52 54
4.23 0.26 11.94 210 201 196
3.93 1.85 11.00 92 80 82
3.93 1.85 11.00 92 80 82
4.98 -2.96 14.06 136 137 142
4.09 1.52 11.24 27 20 27
4.08 2.37 11.13 16 5 9
0.64 -0.12 1.28 76 74 75
0.94 0.12 2.57 149 144 148
4.23 2.81 11.01 149 144 148
5.82 -4.60 14.67 139 125 125
1.89 -0.95 4.28 139 125 125
6.33 -5.19 16.48 146 153 159
5.15 -1.47 13.25 203 196 203
5.69 -2.34 14.46 159 162 167
0.55 -0.18 1.26 140 148 161
11.55 4.08 31.71 75 69 71
5.18 -0.75 12.99 145 144 150
5.03 1.14 12.41 46 41 45
5.03 1.14 12.41 46 41 45
6.91 -5.68 17.14 130 131 136
0.71 -0.29 1.72 115 113 118
5.50 -0.01 12.96 189 177 179
5.05 2.35 11.84 68 67 73
5.94 -0.61 13.57 172 165 155
5.98 -0.30 13.51 132 131 137
5.98 -0.30 13.51 132 131 137
6.81 -2.66 15.31 150 157 167
1.53 0.32 2.94 130 129 134
2.89 -0.69 6.68 130 129 134
1.20 -0.00 2.59 130 129 134
6.71 -2.19 14.98 166 168 167
0.95 -0.71 2.06 44 40 39
5.49 2.52 12.06 187 180 170
3.35 1.21 7.32 142 141 157
20.28 1.93 47.42 33 35 34
0.66 -0.14 1.24 55 58 63
2.12 -0.58 4.37 147 149 162
0.58 -0.16 1.02 60 59 65
0.68 -0.59 1.51 176 179 184
2.19 -0.72 4.87 162 172 145
0.61 -0.19 0.95 68 70 82
1.72 -0.15 3.72 183 174 169
0.81 -0.01 1.71 142 136 136
0.53 -0.57 1.16 184 178 166
1.31 -0.27 2.17 184 178 166
2.03 0.16 3.52 73 76 81
0.63 -0.46 1.26 42 36 40
0.42 -0.12 0.90 82 82 84
0.51 0.24 1.09 155 153 166
1.13 -0.36 2.41 134 132 143
0.71 -0.13 1.40 158 156 157
0.71 0.12 1.49 175 166 167
0.68 -0.24 1.08 35 32 27
1.33 -0.39 -2.80 102 95 87
0.64 -0.36 -1.32 110 95 98
1.33 -0.20 -1.91 255 236 217
1.22 -0.43 -2.53 232 220 198
3.84 0.25 -6.13 99 94 100
6.34 0.30 -10.45 99 94 100
-2.63 -0.07 5.65 21 21 21
-3.90 -1.57 7.96 141 109 84
-2.49 0.21 5.58 105 97 94
-1.08 -0.11 2.69 138 115 83
-3.13 1.34 6.62 255 252 249
-3.35 -0.32 7.14 254 255 237
-3.86 -2.02 8.27 119 108 106
-4.08 -2.36 8.70 94 95 77
-4.08 -2.36 8.70 94 95 77
0.91 0.02 -1.95 94 95 77
0.88 -0.06 -1.57 253 243 241
1.66 -0.68 -3.63 224 211 192
1.10 -0.17 -2.38 255 247 236
1.67 -0.20 -2.28 238 231 213
-3.23 0.35 7.11 129 97 82
1.02 -0.22 -2.10 254 252 237
-3.58 -1.82 8.06 47 53 43
-3.58 -1.82 8.06 47 53 43
0.90 0.12 -1.98 46 45 50
-3.77 -2.78 8.56 135 132 125
4.91 3.15 -11.65 135 132 125
0.61 -0.40 -1.35 232 218 192
2.35 -1.89 -5.47 232 218 192
-3.35 -1.30 7.87 116 114 127
2.96 0.27 -6.78 78 78 80
-2.95 0.14 7.18 78 78 80
-2.88 0.41 7.04 253 252 247
-2.70 1.48 6.69 255 253 255
0.88 0.18 -2.31 86 82 79
-2.74 0.52 6.93 203 176 169
-2.87 0.13 7.25 152 151 156
0.69 -0.49 -1.71 82 76 76
-3.41 -2.81 8.60 229 238 243
-2.87 -0.25 7.43 104 101 96
-2.57 1.31 6.81 221 197 187
-2.57 1.31 6.81 221 197 187
-2.77 0.04 7.47 21 16 20
-2.60 0.71 7.04 215 205 203
-2.41 2.06 6.58 76 67 58
-1.78 0.81 4.84 95 100 104
36.02 3.10 -72.91 95 100 104
-3.01 -1.46 8.35 156 154 155
-2.39 1.34 6.92 233 220 214
-3.01 -1.92 8.61 152 147 151
5.84 -2.40 -17.10 109 86 80
-3.16 -2.60 9.09 48 45 52
-2.65 -0.52 7.89 99 95 94
-3.81 3.44 11.92 240 222 200
-1.18 1.01 3.61 90 80 79
-3.05 -2.66 9.21 108 107 113
-3.13 -3.28 9.48 68 62 66
-3.19 -3.74 9.72 31 23 21
-3.19 -3.74 9.72 31 23 21
-2.72 -1.08 8.31 52 48 45
-2.54 -0.47 7.99 49 45 46
-2.38 0.15 7.63 44 45 47
-2.38 0.15 7.63 44 45 47
-2.14 1.75 6.90 247 236 218
4.33 3.20 -15.63 111 101 109
0.50 -0.40 -1.69 201 189 177
-2.99 -3.49 9.61 146 142 143
-2.78 -1.86 9.08 53 51 52
-2.78 -1.86 9.08 53 51 52
0.56 0.27 -2.03 229 217 203
-2.31 0.06 7.72 204 187 179
-2.88 -3.22 9.53 195 190 196
-2.60 -1.51 8.69 137 131 133
0.50 -0.23 -1.24 162 156 160
-2.01 1.52 7.03 93 92 97
-2.01 1.52 7.03 93 92 97
-0.99 0.65 3.83 33 33 31
-0.73 -0.17 2.83 207 190 172
-2.58 -2.63 9.39 131 126 132
-1.90 1.36 7.21 127 118 119
-3.50 -2.31 12.82 250 237 228
-2.29 -1.29 8.78 250 237 228
-2.42 -2.39 9.40 90 88 93
-2.96 -0.36 12.18 55 46 47
-1.79 1.22 7.24 139 131 129
-1.86 1.70 8.20 128 123 130
-1.97 -1.03 8.59 254 244 243
-1.55 2.32 7.13 167 156 160
-1.55 2.32 7.13 167 156 160
1.34 -0.40 -3.71 167 156 160
-2.09 -2.30 9.46 130 127 134
-1.66 0.79 7.92 177 172 176
-1.49 2.38 7.12 54 54 62
-2.11 -3.59 10.24 87 83 82
-1.48 2.12 7.42 99 114 133
-1.75 -1.61 8.72 146 131 128
-1.73 -1.02 8.64 194 185 170
-1.80 -0.01 9.11 109 106 113
-1.80 -0.01 9.11 109 106 113
-1.67 0.61 8.73 42 46 47
1.13 -1.26 -6.75 42 46 47
0.77 0.15 -4.01 113 101 103
-1.62 -0.00 9.15 113 101 103
-1.52 -1.17 8.78 166 148 136
-1.44 -0.97 8.58 201 180 159
-1.14 1.82 7.03 231 227 215
-1.10 2.16 7.09 205 188 178
0.65 0.61 -4.60 189 166 158
0.34 -0.16 -2.39 189 166 158
-1.08 2.32 7.11 255 244 230
-1.23 1.56 8.12 57 56 54
-5.04 1.53 42.27 129 119 117
-1.02 2.20 7.12 226 217 210
-0.69 0.42 7.25 230 211 197
-1.31 -2.15 9.64 88 84 85
-1.11 1.52 8.35 47 43 40
-1.05 1.02 8.58 138 136 141
-1.07 -1.18 8.86 195 182 174
0.38 -0.53 -2.27 168 157 155
0.41 0.19 -3.96 53 47 49
-0.93 1.90 8.32 145 145 153
0.48 -0.31 -2.89 145 145 153
0.32 -0.56 -3.05 117 110 117
-1.08 -2.22 10.63 108 107 115
-1.05 -3.14 10.42 67 58 59
-0.84 -0.01 8.90 146 137 138
-0.84 -0.01 8.90 146 137 138
-6.94 4.37 46.08 142 145 152
-0.67 2.06 8.47 114 109 116
-0.26 0.29 2.40 114 109 116
-0.63 0.25 9.08 152 150 151
-0.56 1.18 8.97 156 150 154
-0.57 -0.45 9.41 150 148 153
-0.61 -2.93 10.58 176 171 175
0.14 0.88 -4.74 176 171 175
-0.49 0.98 9.11 154 148 150
-0.49 -0.30 9.36 116 112 113
-0.38 -3.13 10.89 233 215 211
2.42 10.20 -72.29 138 133 137
-0.73 1.59 11.54 152 145 153
-0.20 2.49 8.08 237 219 197
0.01 0.38 -5.59 189 170 163
-0.07 0.96 3.34 148 133 130
0.10 2.64 8.59 60 56 53
0.10 2.64 8.59 60 56 53
0.21 -0.45 -4.31 140 142 157
-0.23 0.07 4.74 140 142 157
0.08 -2.19 -8.84 229 209 184
0.15 -1.92 11.04 122 119 126
0.02 -0.07 1.79 121 115 115
0.36 -0.58 10.05 203 198 202
0.36 -0.58 10.05 203 198 202
0.41 1.90 9.41 170 165 171
0.55 0.91 9.72 144 132 134
0.55 0.91 9.72 144 132 134
0.07 0.31 2.30 239 210 194
0.77 -4.46 11.93 223 206 190
0.67 2.68 8.94 242 227 208
0.09 -0.34 1.63 117 116 122
0.17 -0.08 1.21 98 91 98
1.04 -1.41 11.39 121 120 128
1.05 -2.57 11.54 174 162 164
0.91 1.54 9.61 176 170 170
1.01 1.45 9.64 166 164 165
-0.42 -0.51 -4.51 166 164 165
0.95 2.84 8.98 207 186 169
1.28 -3.43 12.29 90 72 60
0.53 -0.05 2.02 90 72 60
1.25 -1.48 11.44 57 49 46
1.14 1.87 9.96 74 68 72
1.39 -2.85 12.14 123 110 101
1.67 -4.07 12.26 153 140 131
1.67 -4.07 12.26 153 140 131
1.72 -4.40 12.43 222 199 181
1.89 -0.46 6.53 222 199 181
1.45 1.17 10.14 233 219 206
1.49 1.75 10.21 73 58 53
0.19 0.00 1.53 73 58 53
1.37 2.74 9.15 249 233 218
1.74 0.34 10.74 114 108 110
1.65 2.30 9.70 213 196 180
-2.34 -0.36 -14.14 164 144 137
1.86 0.68 10.52 164 144 137
1.83 1.33 10.13 131 115 116
2.25 -3.37 12.38 52 41 37
1.83 1.60 9.80 235 226 217
1.72 2.91 9.18 242 223 216
1.91 1.59 9.93 206 190 175
1.91 1.59 9.93 206 190 175
2.03 0.65 10.59 188 164 152
-3.14 -3.58 -22.98 107 114 122
2.08 1.32 10.24 233 210 168
2.66 -4.10 12.77 141 137 136
2.96 2.49 15.80 93 87 91
2.04 2.49 9.60 93 87 91
2.52 -0.20 11.76 141 152 172
2.71 -3.89 12.72 132 131 127
2.71 -3.89 12.72 132 131 127
2.75 -3.51 12.74 57 44 28
2.75 -3.51 12.74 57 44 28
2.71 -2.62 12.37 96 85 83
0.28 -0.39 1.37 80 57 39
2.29 -0.26 5.23 163 158 162
3.00 -3.42 12.85 163 158 162
2.84 -1.76 12.05 179 174 171
0.63 -0.39 2.65 179 174 171
2.43 1.78 10.12 211 194 184
0.99 1.39 4.30 35 30 34
0.35 -0.14 0.92 154 154 152
2.63 0.40 10.77 215 195 184
3.12 -1.13 12.76 141 130 134
3.12 -1.13 12.76 141 130 134
2.47 2.01 9.79 234 214 205
0.47 0.26 1.98 234 214 205
2.48 1.45 9.78 176 154 141
3.03 -0.46 11.94 216 198 186
2.56 1.73 10.04 89 81 79
0.41 -0.17 1.06 57 53 54
3.53 -4.82 13.71 190 181 182
1.19 -1.49 4.86 118 113 117
3.34 -3.27 12.87 118 113 117
0.39 -0.23 1.50 53 44 47
0.93 -0.60 3.89 53 44 47
1.63 -0.45 7.04 53 44 47
0.44 -0.22 0.72 182 186 187
3.53 -3.80 13.45 161 165 164
3.53 -3.80 13.45 161 165 164
2.72 2.08 10.07 71 65 67
2.72 2.08 10.07 71 65 67
1.31 -0.35 3.08 154 148 162
0.38 0.10 1.30 250 247 230
3.81 -4.22 13.89 59 50 45
2.97 2.96 10.32 22 17 14
0.45 -0.61 1.67 156 141 144
3.14 0.84 10.81 219 206 197
3.14 0.84 10.81 219 206 197
2.98 2.40 10.21 155 145 144
1.39 0.74 5.14 155 145 144
2.96 2.56 10.07 158 156 159
2.96 2.56 10.07 158 156 159
3.28 0.58 10.99 135 126 121
1.20 0.21 3.21 163 145 135
4.58 -4.69 14.80 123 121 122
4.58 -4.69 14.80 123 121 122
0.51 -0.05 1.40 70 64 64
3.43 2.98 10.55 84 92 95
3.56 1.34 10.97 100 95 101
3.93 -0.54 12.06 190 180 181
3.79 0.70 11.36 148 142 144
3.79 0.70 11.36 148 142 144
1.15 -0.49 2.67 110 110 112
4.47 -2.33 13.24 181 181 183
4.47 -2.33 13.24 181 181 183
5.16 -4.28 15.20 137 136 141
4.46 -1.62 12.98 106 97 100
4.46 -1.62 12.98 106 97 100
3.83 3.04 10.94 11 13 12
3.96 3.48 11.10 45 41 42
5.55 -4.28 15.49 119 117 122
4.73 -2.13 13.22 160 160 162
4.03 1.74 11.01 162 162 170
4.44 0.61 12.12 142 137 143
4.99 -1.84 13.53 167 166 171
1.51 -1.37 4.04 126 124 127
6.18 -5.47 16.45 126 124 127
4.79 0.18 12.58 60 55 59
5.56 -2.47 14.38 32 30 31
5.56 -2.47 14.38 32 30 31
5.56 -2.47 14.38 32 30 31
4.60 1.74 11.65 138 140 153
1.00 -0.51 2.31 97 101 110
4.68 2.05 11.63 144 147 152
4.72 3.25 11.71 121 116 120
4.72 3.25 11.71 121 116 120
4.84 1.89 11.81 161 159 164
5.39 -0.74 13.18 67 65 68
4.74 2.24 11.50 191 183 180
1.43 -0.23 2.38 145 145 153
0.52 0.04 1.26 157 152 156
0.53 -0.15 1.09 29 28 23
5.30 2.92 12.09 150 137 131
5.87 0.08 13.21 203 193 192
5.45 2.24 12.21 129 131 143
5.44 2.46 12.17 33 32 37
2.19 0.99 4.90 33 32 37
4.07 -2.38 9.34 68 66 67
5.42 2.82 11.99 137 141 150
0.43 0.09 1.00 137 141 150
0.59 0.04 1.35 136 135 143
4.37 0.07 10.13 95 93 104
0.43 -0.22 0.97 72 71 79
4.21 -1.92 9.56 121 120 118
0.46 -0.36 1.03 28 29 31
2.67 -0.06 5.37 80 64 67
1.47 -0.65 3.27 80 64 67
0.59 -0.05 1.08 133 133 141
0.80 -0.09 1.73 180 175 172
0.78 -0.09 1.70 180 175 172
0.61 -0.29 1.34 161 160 156
0.88 -0.18 1.36 101 103 102
0.55 -0.48 1.18 87 80 72
5.18 -0.02 -8.57 244 228 228
0.65 -0.15 -1.37 199 186 154
0.69 -0.18 -1.41 109 95 86
0.95 -0.42 -2.01 109 95 86
-3.69 -1.45 7.68 255 253 255
0.81 -0.23 -1.55 255 253 255
0.82 0.13 -1.75 96 83 67
-3.35 0.54 7.09 97 96 94
1.62 -0.52 -3.32 217 205 189
-3.61 -1.17 7.63 217 205 189
-3.46 -0.20 7.38 96 83 74
-3.88 -2.31 8.34 77 67 58
-3.88 -2.31 8.34 77 67 58
-2.94 1.47 6.47 120 118 121
-2.94 1.47 6.47 120 118 121
-3.51 -0.67 7.73 49 42 34
0.76 -0.14 -1.67 105 102 87
-3.50 -1.26 7.72 105 102 87
-3.01 0.59 6.83 117 111 121
-3.84 -2.82 8.67 128 126 129
-3.60 -2.10 8.23 255 255 250
-3.05 -0.16 7.18 122 117 121
-2.84 1.04 6.82 111 102 107
-2.77 1.42 6.70 149 142 150
-3.13 -0.48 7.55 81 75 75
-3.41 -2.15 8.46 70 69 77
-3.40 -2.53 8.50 58 59 54
-2.72 0.94 7.00 68 72 73
-3.06 -1.18 7.96 223 217 203
-2.97 -0.75 7.83 53 48 52
-2.51 1.83 6.68 54 54 66
-3.35 -3.34 8.88 176 184 203
-13.75 1.00 41.11 223 209 200
-2.88 -1.00 7.81 223 209 200
0.63 -0.18 -1.55 43 42 50
-2.33 1.91 6.49 88 86 87
-2.72 -0.14 7.59 126 121 127
-2.35 2.17 6.71 112 108 109
-2.39 2.13 6.84 114 113 108
-2.39 1.43 6.89 218 198 187
-2.39 1.43 6.89 218 198 187
-2.27 1.38 6.86 126 121 118
-7.61 3.81 19.76 26 27 32
1.40 -0.61 -3.30 89 85 84
-2.42 -0.37 7.94 210 205 211
-2.42 -0.37 7.94 210 205 211
0.56 -0.49 -1.73 202 192 180
0.61 -0.13 -1.62 92 83 88
-2.04 1.09 7.22 123 122 127
20.86 -14.29 -76.31 123 122 127
1.46 1.24 -5.91 193 188 194
-2.44 -1.41 8.77 60 54 58
0.96 -0.04 -3.55 147 146 152
-1.80 -1.43 8.36 39 39 41
0.52 -0.48 -1.81 199 172 161
-1.74 2.21 6.97 199 185 172
-1.67 1.96 7.21 144 133 139
-1.99 0.03 8.96 57 56 62
-1.76 0.90 7.91 109 110 114
-2.23 -3.59 9.99 191 178 169
-2.04 -2.28 9.29 138 134 133
-1.22 0.07 8.07 138 134 133
-1.89 -1.38 8.83 86 63 55
-1.89 -1.38 8.83 86 63 55
-1.89 -1.38 8.83 86 63 55
-1.44 1.86 7.26 144 140 139
-1.50 1.07 7.87 251 234 224
1.84 -3.05 -9.98 51 46 50
1.15 -0.75 -4.45 140 136 137
0.43 -1.00 -2.54 140 136 137
-1.38 1.98 7.66 34 33 29
-1.63 -2.05 9.04 244 230 221
-1.88 -3.57 10.50 46 43 38
-1.61 -1.76 9.04 218 200 176
-1.72 -3.23 10.08 229 213 197
-1.44 0.58 8.64 137 136 141
-1.25 1.37 8.02 172 166 168
0.89 -1.59 -7.32 132 123 126
-1.46 -2.20 9.38 254 246 243
-1.46 -2.20 9.38 254 246 243
-1.51 -3.00 9.94 222 217 211
-1.27 0.05 8.71 188 166 155
-1.21 -0.39 8.52 75 55 54
-1.06 1.89 7.95 233 224 225
-1.13 2.80 8.77 175 155 146
0.34 -0.78 -2.56 27 23 22
-1.20 -0.08 4.49 42 42 42
-0.83 2.30 7.49 141 139 142
-0.96 -0.96 9.17 129 125 126
-0.27 -0.14 3.09 136 132 133
0.41 0.79 -5.63 94 91 98
-1.01 -3.83 10.84 96 99 106
0.10 -0.25 2.55 96 99 106
-0.60 1.04 9.02 136 127 132
0.63 -0.50 -6.36 198 178 153
-0.57 1.51 8.82 198 178 153
-0.64 -1.20 9.88 135 138 147
-0.32 0.41 3.63 72 64 62
-0.28 1.23 5.05 109 114 118
-0.51 -4.51 12.01 124 114 125
-0.37 -0.59 9.59 164 162 165
-0.37 -0.59 9.59 164 162 165
-0.03 0.21 1.68 169 167 170
0.21 2.21 -21.82 226 208 204
-0.14 1.93 9.01 65 63 66
-0.06 0.38 1.72 104 107 98
0.24 0.34 -4.58 134 122 122
-0.03 1.05 9.17 139 127 127
0.24 0.16 2.43 137 138 143
0.01 -0.05 2.32 211 185 170
-0.13 -1.32 -4.37 74 72 73
-1.31 -0.10 16.24 74 72 73
0.38 -3.51 11.75 64 46 32
0.41 2.19 9.27 96 87 92
0.02 0.34 2.34 231 216 213
0.67 -1.93 10.89 197 183 174
1.95 -3.40 25.54 197 183 174
0.64 1.98 9.58 67 62 66
0.65 2.76 8.75 78 74 75
0.65 2.76 8.75 78 74 75
0.75 0.76 9.82 191 185 187
8.22 10.42 96.29 191 185 187
0.86 -2.00 11.34 102 97 101
0.79 2.05 9.61 180 179 193
1.00 1.97 9.65 195 193 196
1.00 1.97 9.65 195 193 196
1.18 -3.13 11.84 187 181 183
1.08 2.53 9.34 232 221 215
1.23 0.85 10.16 254 240 231
1.18 2.87 9.00 223 211 197
1.63 -3.09 12.27 36 23 17
1.27 2.52 9.10 244 228 212
1.60 -1.19 11.40 167 149 139
1.60 -1.19 11.40 167 149 139
0.71 -1.05 3.91 214 192 178
1.75 -4.68 12.52 214 192 178
1.73 1.44 10.17 255 252 241
0.31 0.55 1.87 4 4 4
2.33 -2.75 12.17 65 49 50
2.45 -3.31 12.47 72 65 59
1.87 2.54 9.28 220 219 214
-2.74 -1.92 -17.80 220 219 214
1.87 2.71 9.32 158 143 136
2.30 0.07 11.07 230 217 209
2.54 -2.31 11.94 204 204 206
2.35 0.23 10.99 119 109 108
2.30 1.65 9.88 100 100 98
2.30 1.65 9.88 100 100 98
3.09 -3.10 12.56 176 167 170
3.08 -2.50 12.45 142 124 122
3.08 -2.50 12.45 142 124 122
2.43 1.33 9.68 225 206 202
0.52 -0.03 1.75 154 142 144
1.44 0.39 4.37 205 192 184
3.29 -0.55 11.93 205 192 184
3.11 1.75 10.48 119 114 118
0.79 -0.18 2.35 102 102 112
1.65 1.48 5.55 102 102 112
0.36 -0.31 1.27 253 253 255
3.27 2.50 10.57 69 64 68
3.27 2.50 10.57 69 64 68
4.10 -3.48 11.97 144 139 145
4.04 -1.57 12.68 94 83 87
2.15 1.38 6.33 23 23 25
3.50 1.74 10.88 23 23 25
7.65 4.08 23.50 23 23 25
3.68 0.37 11.31 177 171 173
1.70 -1.18 4.64 88 79 80
5.09 -3.11 14.55 149 150 155
0.36 0.06 0.99 152 132 134
4.57 -0.24 12.54 80 75 79
4.27 1.09 11.69 151 149 154
0.45 -0.44 1.29 68 67 73
4.52 0.35 12.07 158 148 149
4.52 0.35 12.07 158 148 149
4.52 0.35 12.07 158 148 149
4.29 1.53 11.40 164 164 166
6.05 -4.82 16.11 46 42 39
5.72 -3.38 15.16 122 123 128
4.54 1.27 11.85 142 141 147
1.31 -0.34 2.43 156 146 154
4.81 0.90 12.16 243 228 221
4.55 2.18 11.46 104 102 107
4.81 0.90 12.16 243 228 221
1.48 -1.14 3.61 84 80 77
2.63 0.02 6.14 143 142 147
6.43 -4.33 15.91 123 117 117
1.12 0.15 2.83 183 172 170
6.59 -3.30 15.81 143 145 157
6.21 -2.62 14.87 59 56 63
5.17 2.07 12.03 172 167 173
5.17 2.07 12.03 172 167 173
5.20 3.17 11.98 119 113 115
5.16 3.46 11.85 67 66 64
5.16 3.46 11.85 67 66 64
5.17 3.65 11.86 121 119 124
1.32 0.61 3.18 121 119 124
5.17 3.65 11.86 121 119 124
5.43 2.07 12.27 65 65 67
1.02 -0.71 2.22 131 134 139
5.80 1.13 12.93 28 28 30
5.95 0.57 13.22 27 25 28
5.95 0.57 13.22 27 25 28
2.41 0.90 5.58 145 150 156
0.67 -0.13 1.45 44 40 41
0.87 0.24 1.87 132 136 147
0.50 -0.36 1.07 101 101 111
0.46 0.13 1.00 159 157 160
1.62 0.89 3.55 159 157 160
1.99 0.03 4.26 135 133 138
0.60 -0.06 1.16 135 133 138
0.62 0.24 1.33 197 208 152
0.60 0.12 1.30 197 208 152
0.57 0.23 1.23 59 60 65
1.29 -0.27 2.66 64 65 70
0.62 -0.25 0.98 48 46 49
0.86 -0.30 -1.67 130 124 126
0.75 -0.61 -1.58 247 248 243
0.75 -0.61 -1.58 247 248 243
1.17 -0.15 -2.52 212 202 192
-3.59 -0.93 7.46 212 202 192
0.88 -0.71 -1.88 242 234 223
-2.99 1.93 6.46 91 94 87
-2.99 1.93 6.46 91 94 87
-3.01 0.53 6.63 255 240 232
-3.40 -0.65 7.55 65 57 55
0.89 -0.08 -2.04 70 66 65
-2.81 1.69 6.44 142 132 130
-3.32 -1.77 7.79 227 211 198
-3.60 2.40 8.84 134 122 122
-2.64 1.99 6.43 233 220 214
-3.27 -2.48 8.03 236 236 234
-3.30 -1.76 8.08 52 52 42
-2.78 0.59 6.88 49 46 41
-2.79 1.02 6.93 235 222 205
-2.59 1.71 6.58 226 225 220
-2.73 0.94 7.01 68 72 73
-3.36 -2.95 8.63 224 233 242
-2.73 0.35 7.08 239 239 227
-2.55 1.86 6.76 77 82 88
-2.73 0.17 7.43 230 217 201
-2.66 0.31 7.30 81 80 88
-5.98 0.55 17.22 138 137 142
0.70 -0.26 -2.04 138 137 142
0.68 0.08 -1.84 138 137 142
-2.80 -0.72 7.98 163 159 160
-8.21 -1.36 24.11 163 159 160
0.57 0.14 -1.60 105 104 109
-2.46 0.25 7.53 241 228 211
-2.37 0.37 7.30 33 37 40
-2.17 1.34 6.91 255 239 231
0.57 -0.20 -1.73 49 40 43
-3.87 1.18 11.60 49 40 43
23.45 -5.18 -72.03 40 38 39
72.54 -45.46 -249.93 40 38 39
-0.86 0.32 2.98 243 225 205
-2.18 0.53 7.28 243 225 205
-2.72 -2.40 9.20 108 99 102
-2.01 1.85 7.06 97 88 89
-2.27 -0.42 8.34 12 10 11
-1.87 1.93 6.97 212 204 191
1.11 -1.04 -3.77 78 82 85
1.11 -1.04 -3.77 78 82 85
5.20 -4.36 -17.02 84 76 73
-2.21 -0.60 8.31 205 192 176
-2.39 -3.56 9.88 119 108 106
-1.97 0.52 8.35 113 113 121
-1.65 2.29 7.05 42 40 45
-1.67 2.08 7.22 36 39 44
-2.29 -0.47 10.10 66 60 60
-1.75 0.90 7.88 109 110 114
-2.06 -1.99 9.29 171 153 149
-1.82 0.33 8.78 63 61 64
-3.15 -2.05 14.97 250 234 221
-1.42 2.02 7.41 33 28 32
-1.61 -3.82 10.67 82 77 81
-1.21 -0.24 8.43 195 176 159
0.30 -0.04 -2.28 195 176 159
0.39 -0.07 -3.04 195 176 159
-1.00 2.02 7.94 224 210 199
-1.00 2.02 7.94 224 210 199
-1.00 2.02 7.94 224 210 199
-0.99 -0.62 8.76 96 94 95
-0.72 2.39 7.79 94 95 99
-0.98 -3.01 10.43 150 145 151
-0.49 1.36 8.99 139 130 133
-0.38 -2.24 10.38 163 152 148
-0.30 -0.03 9.52 175 173 176
0.11 2.50 8.65 254 237 227
0.04 -1.58 5.66 67 61 61
0.24 0.85 9.46 134 130 131
0.25 2.26 9.13 123 117 119
0.53 -3.54 21.23 138 134 133
0.49 1.64 9.38 160 154 158
0.58 -1.21 10.55 233 211 198
-0.28 0.61 -7.38 154 143 139
1.48 -0.48 25.06 154 143 139
0.67 -1.61 10.89 211 188 180
0.10 -0.45 2.11 165 159 161
0.12 -0.75 1.92 88 74 73
1.09 -3.34 11.92 62 48 39
1.29 -3.61 12.14 126 118 115
1.24 -1.70 11.52 142 137 141
1.24 -1.70 11.52 142 137 141
1.02 2.71 9.06 220 197 179
1.84 -2.63 12.56 51 45 45
1.88 1.15 10.29 188 164 160
2.05 0.32 10.89 221 202 198
2.35 -4.24 12.62 78 72 74
2.50 -3.58 12.57 152 135 125
1.92 1.85 9.08 210 191 185
2.58 -2.35 12.19 231 227 228
2.74 -2.23 12.25 126 116 115
0.36 0.25 1.55 206 186 175
0.71 0.01 3.10 143 134 129
3.01 -3.70 12.98 116 115 121
3.01 -3.70 12.98 116 115 121
3.50 -4.33 13.50 149 142 134
-4.39 -2.94 -16.50 65 65 67
2.89 1.55 10.18 117 101 102
3.51 1.41 10.77 183 176 168
0.58 0.09 1.97 183 176 168
3.87 -2.12 12.74 158 142 143
0.59 -0.09 2.04 168 179 199
3.59 2.25 10.71 124 117 109
5.64 -4.94 15.65 137 135 138
4.67 -1.54 12.87 146 137 132
4.92 -0.20 12.61 186 171 168
6.18 -3.62 15.50 139 139 149
5.39 2.64 12.34 153 154 148
9.53 -0.36 23.56 153 154 148
1.59 -0.30 3.00 83 83 85
0.72 -0.40 1.59 164 163 171
0.62 0.25 1.38 102 100 105
0.84 -0.24 1.77 200 182 180
0.92 -0.07 1.42 33 31 34
-2.98 1.48 6.48 177 170 164
-3.03 1.29 6.67 243 232 226
-2.89 1.80 6.43 207 188 181
0.60 -0.48 -1.43 181 181 183
-3.28 -2.73 8.60 79 83 86
2.34 -0.30 -3.61 43 43 45
1.05 -0.32 -2.00 43 43 45
0.81 0.01 -2.30 204 192 170
-3.04 -1.00 8.11 204 192 170
0.80 -0.67 -2.25 157 158 160
-2.05 1.51 7.02 86 88 87
-2.64 -2.99 9.41 163 155 153
-2.01 0.86 7.40 130 126 125
-1.88 0.88 7.45 238 231 215
-1.88 0.88 7.45 238 231 215
-3.33 1.82 13.46 238 231 215
-1.70 -2.61 9.38 191 172 158
2.05 -0.47 -6.03 129 120 123
-1.09 -1.00 8.61 220 200 189
-0.38 0.12 2.91 252 234 210
-0.42 0.35 3.44 252 234 210
0.39 0.63 -4.51 154 143 149
0.39 0.63 -4.51 154 143 149
-0.41 -2.59 8.76 122 116 120
-0.41 -2.59 8.76 122 116 120
-0.28 -4.09 11.80 95 89 91
-0.28 -4.09 11.80 95 89 91
-0.28 -4.09 11.80 95 89 91
-0.14 -3.73 11.60 198 192 192
-0.14 -3.73 11.60 198 192 192
0.01 -1.24 -4.10 55 50 47
0.04 -4.56 12.31 151 135 122
0.37 -0.18 1.78 107 89 85
1.22 1.76 9.88 81 70 68
0.30 -0.41 3.78 81 70 68
1.26 2.37 9.65 98 87 91
0.86 -1.42 7.41 90 89 94
1.60 0.41 10.53 57 53 50
0.33 -0.10 1.37 234 220 207
1.83 2.90 9.32 249 242 232
1.96 1.94 9.41 98 84 75
1.98 -1.06 7.69 106 86 75
3.00 -1.63 11.65 106 86 75
3.41 -2.01 12.68 53 40 32
0.60 -0.49 2.35 53 40 32
2.93 1.31 10.42 141 139 140
3.78 -0.70 11.92 220 215 212
3.78 -0.70 11.92 220 215 212
3.36 2.74 10.40 169 167 172
0.60 -0.16 1.37 186 186 188
0.58 0.28 1.74 186 186 188
1.23 -0.26 2.40 82 72 73
5.98 -4.40 15.86 75 71 70
4.56 0.99 12.05 36 35 40
4.33 2.37 11.23 150 148 149
4.33 2.37 11.23 150 148 149
5.83 -2.78 14.63 191 186 183
2.40 -0.04 4.95 191 186 183
6.21 -2.18 14.60 207 198 199
5.62 0.27 13.15 26 16 15
6.71 -3.21 15.75 109 106 115
5.76 -1.38 13.50 229 222 204
5.76 -1.38 13.50 229 222 204
0.56 0.14 1.27 158 149 142
5.82 0.85 12.95 149 135 126
5.82 0.85 12.95 149 135 126
0.71 -0.51 1.52 175 166 171
0.58 -0.35 1.25 175 166 171
9.92 3.41 -23.14 81 70 68
-3.45 -0.44 7.44 241 238 219
-3.45 -0.44 7.44 241 238 219
0.95 -0.15 -2.25 200 179 188
-2.77 0.41 7.02 222 209 192
-2.77 0.41 7.02 222 209 192
-2.52 0.45 7.21 245 229 214
1.00 -0.50 -3.03 245 229 214
-2.66 -0.29 7.73 87 88 93
-2.78 -0.95 8.07 125 124 122
-2.52 -0.61 8.25 153 148 154
-27.12 3.25 100.01 23 24 26
-2.57 -3.55 9.97 61 60 56
-1.55 1.65 7.39 159 156 163
0.68 -0.22 -1.77 235 219 206
-0.89 0.53 3.41 235 219 206
-1.64 0.41 8.86 130 127 136
0.40 -0.42 -2.31 113 101 101
-0.20 -0.06 2.03 120 115 119
-1.26 -1.30 8.83 120 115 119
-1.04 -3.60 11.34 79 70 73
0.08 -0.13 1.77 79 70 73
-0.86 -3.53 10.48 94 91 102
-0.66 -2.52 10.89 67 57 58
-0.45 1.09 9.05 169 164 168
-0.34 -1.84 10.27 192 175 159
-0.01 -1.07 10.25 119 119 119
0.35 -1.47 10.68 134 132 133
0.57 -2.67 12.01 41 35 35
0.78 2.14 9.53 165 171 187
0.90 2.40 9.42 114 113 118
0.98 1.59 9.64 171 160 166
-0.29 -0.84 -3.72 233 214 200
0.35 -0.17 1.52 201 197 198
12.86 -6.68 57.26 201 197 198
4.97 6.02 29.96 48 37 31
0.41 -0.28 1.68 89 82 89
2.58 0.42 11.06 155 142 125
2.82 -0.01 11.63 197 181 166
0.35 0.09 1.05 46 41 45
3.78 1.46 11.01 203 191 191
3.78 1.46 11.01 203 191 191
3.80 2.62 10.76 154 145 150
1.30 -0.13 2.48 69 60 51
3.21 2.18 7.41 54 57 64
1.53 0.38 3.10 163 154 157
2.41 -0.61 4.34 77 70 77
1.26 0.35 2.74 180 175 172
2.78 1.13 5.90 180 175 172
3.75 -2.57 7.73 212 203 196
1.69 -0.58 3.47 172 166 166
-3.19 0.03 7.10 200 180 171
-2.94 0.22 7.07 114 107 115
-2.51 1.64 6.80 90 88 93
-2.99 -1.66 8.47 119 114 118
-1.57 1.68 7.46 158 153 160
-1.32 1.83 7.70 85 85 87
-1.28 -1.31 8.92 122 117 121
-1.34 -3.55 10.38 213 194 179
-1.34 -3.55 10.38 213 194 179
0.24 -0.33 -2.06 255 248 234
-0.31 1.28 5.49 255 248 234
0.87 -2.57 11.79 210 186 160
0.21 -0.54 1.98 81 77 66
0.17 -0.10 1.37 65 61 62
0.17 -0.10 1.37 65 61 62
1.93 -3.03 12.13 205 192 184
0.36 -0.22 0.77 34 25 20
0.43 0.54 1.99 185 184 189
0.98 0.25 3.42 115 110 116
2.97 1.79 10.75 95 86 87
0.41 -0.02 0.86 124 131 139
4.74 0.40 -11.90 255 247 215
-2.72 1.41 6.77 214 210 199
-2.35 0.14 7.54 121 118 111
-2.83 -3.49 9.68 181 169 157
-2.11 -1.85 8.76 171 158 152
-0.76 -0.23 3.97 171 158 152
-1.62 -0.85 8.57 128 112 86
0.17 1.68 9.15 149 147 150
0.34 -0.26 -3.06 248 238 226
0.46 2.47 9.21 239 238 233
1.08 -1.34 10.95 96 91 95
1.08 0.44 10.04 226 205 202
1.85 -1.57 11.72 172 157 136
2.43 -4.51 12.71 123 118 122
0.48 -0.36 1.15 141 136 133
1.85 -0.05 3.06 141 136 133
5.44 0.55 12.75 49 47 52
-3.85 -2.78 8.46 61 52 43
0.69 0.17 -1.58 61 52 43
-3.85 -2.78 8.46 61 52 43
-3.18 -1.54 8.04 55 52 61
-2.86 0.02 7.26 115 110 114
-2.86 0.02 7.26 115 110 114
-2.50 1.98 6.47 132 118 115
-1.51 2.11 7.19 147 151 176
-1.11 2.05 7.25 249 243 231
-1.22 0.34 8.83 205 194 188
-0.76 -1.46 9.62 122 121 126
0.05 2.19 8.97 90 84 88
0.14 -1.45 9.99 76 74 77
0.14 -1.45 9.99 76 74 77
0.35 -3.19 11.77 77 65 65
1.49 -2.52 12.08 54 48 48
1.49 -2.52 12.08 54 48 48
-2.13 -0.57 -12.93 197 168 162
-2.16 -0.93 8.49 80 71 76
-1.15 1.65 8.35 129 124 130
-0.28 -3.58 11.40 147 132 135
1.18 2.03 10.13 141 141 143
-0.48 0.21 2.64 74 70 71
-1.84 -0.22 8.52 74 70 71
-0.95 -2.57 10.24 63 54 57
0.28 0.27 1.93 190 177 171
2.73 -1.31 12.36 54 53 61
0.40 -0.86 -4.62 140 134 134
2.81 0.19 10.80 199 192 184
2.81 0.19 10.80 199 192 184
-0.00 0.13 9.54 146 134 134
-0.00 0.13 9.54 146 134 134
