ply
format ascii 1.0
element vertex 1776
property float x
property float y
property float z
property uchar red
property uchar green
property uchar blue
end_header
0.00 0.04 0.18 209 202 132
-0.04 0.07 0.78 123 160 153
-0.09 0.09 0.86 123 160 153
-0.03 0.14 0.81 151 108 92
-0.11 0.76 1.99 128 123 117
-0.09 0.51 1.30 119 110 113
-0.19 -0.08 0.46 187 201 201
0.06 0.02 0.37 94 66 45
-0.08 0.62 1.62 114 112 113
0.05 0.04 0.14 203 198 107
-0.08 -0.01 0.64 133 159 148
-0.07 -0.01 0.65 133 159 148
-0.04 -0.05 0.20 34 41 69
-0.05 -0.04 0.44 162 94 91
-0.11 -0.01 0.74 204 200 113
-0.08 0.15 0.79 190 110 109
-0.11 0.03 0.79 211 209 134
-0.09 0.01 0.63 211 209 134
-0.11 0.08 0.84 120 149 129
-0.09 0.30 1.19 104 79 75
-0.06 -0.11 0.65 110 64 41
-0.05 -0.05 0.24 110 64 41
0.02 -0.07 0.55 114 160 158
-0.10 0.19 0.92 136 104 105
-0.14 -0.17 0.77 93 108 65
-0.03 0.04 0.61 139 159 147
0.04 0.04 -0.05 90 103 93
0.02 -0.00 0.51 120 150 126
-0.04 0.02 0.37 126 162 148
-0.04 -0.11 0.46 149 159 88
0.00 0.00 0.49 137 170 151
-0.02 -0.01 0.49 137 170 151
0.04 -0.02 0.67 195 193 110
-0.08 -0.04 0.59 195 193 110
-0.09 0.16 0.86 102 89 81
-0.08 0.12 0.74 102 89 81
-0.09 0.19 0.82 135 167 152
-0.01 -0.03 0.01 223 222 155
-0.10 0.34 1.14 223 222 155
0.03 0.03 -0.07 91 118 99
-0.08 0.35 1.20 190 193 184
-0.09 0.19 0.85 164 118 103
-0.08 0.02 0.76 217 217 157
-0.06 -0.02 0.44 142 174 163
-0.07 -0.02 0.60 142 174 163
0.02 0.14 0.65 217 174 167
-0.02 0.06 0.63 84 69 50
0.05 0.05 -0.07 40 40 30
0.03 0.06 -0.18 154 163 98
-0.09 0.12 0.88 133 168 148
-0.09 0.20 0.91 189 190 132
-0.10 0.10 0.80 215 213 128
-0.07 0.11 0.69 148 92 103
0.07 0.01 0.56 133 185 183
-0.07 0.55 1.58 195 209 212
-0.08 -0.12 0.61 152 160 85
0.16 3.92 10.91 68 68 56
-0.07 -0.25 0.66 62 59 52
-0.01 0.09 0.79 170 105 87
0.01 0.11 0.57 218 212 124
-0.04 0.01 0.48 210 208 125
-0.07 -0.21 0.66 27 18 13
-0.06 0.08 0.74 135 169 136
-0.06 0.08 0.74 135 169 136
0.09 -0.13 0.58 45 41 42
0.07 0.01 0.55 121 172 175
-0.15 -0.17 0.58 37 42 38
-0.02 -0.03 0.18 107 57 34
-0.07 0.13 0.75 224 201 187
-0.17 -0.03 0.77 103 124 105
0.06 0.05 0.37 114 85 69
-0.12 0.01 0.83 114 85 69
-0.01 0.18 0.80 79 76 67
-0.16 -0.08 0.35 39 41 36
0.08 -0.14 0.52 32 32 30
0.07 0.02 0.54 205 200 118
0.02 0.02 0.38 208 210 205
-0.08 0.31 1.10 217 212 118
-0.07 -0.04 0.75 202 198 109
-0.09 0.12 0.82 217 215 130
-0.07 0.12 0.77 163 98 80
0.02 0.17 0.42 21 25 11
-0.17 -0.07 0.47 46 28 8
-0.16 -0.11 0.41 46 45 41
0.06 -0.02 0.15 42 41 39
-0.05 0.47 1.20 57 55 40
-0.14 -0.21 0.72 34 33 28
-0.01 0.12 0.70 143 80 36
0.03 0.13 0.43 43 44 36
-0.08 0.21 0.98 222 215 124
-0.03 0.16 0.78 160 102 54
-0.11 0.03 0.65 211 199 117
-0.04 0.03 0.64 212 207 126
0.06 -0.02 0.18 44 35 18
-0.18 -0.08 0.52 27 26 22
0.12 -0.10 0.49 31 30 28
-0.01 -0.16 0.42 31 30 28
0.04 0.01 0.07 126 79 33
-0.09 -0.08 0.50 148 156 81
0.01 0.19 0.77 62 58 55
-0.14 -0.06 0.46 129 86 33
-0.07 0.08 0.64 213 212 210
-0.07 0.08 0.64 213 212 210
-0.07 0.20 0.89 221 217 118
-0.14 -0.14 0.46 28 28 30
-0.16 -0.06 0.71 116 76 25
0.02 0.01 0.41 138 165 160
-0.07 0.11 0.82 215 221 217
-0.09 -0.07 0.35 137 142 76
-0.04 -0.01 0.19 135 191 188
0.04 0.12 0.51 135 191 188
0.04 0.12 0.51 135 191 188
0.02 0.10 0.21 136 167 149
-0.07 0.20 0.96 136 167 149
-0.05 -0.03 0.70 40 69 135
-0.04 -0.06 0.25 94 105 91
-0.06 0.01 0.76 129 165 151
-0.00 0.57 1.51 50 51 45
-0.06 0.01 -0.10 97 68 28
-0.02 -0.03 0.17 125 183 187
0.04 0.06 0.49 109 91 91
0.05 0.13 0.62 150 200 207
0.04 0.12 0.50 150 200 207
-0.05 -0.02 0.00 65 34 13
0.05 0.07 0.64 217 213 124
-0.03 0.44 1.37 33 37 23
0.03 0.02 0.24 135 191 192
-0.08 -0.31 -0.87 52 52 50
-0.09 -0.07 0.57 158 163 79
0.04 -0.02 0.24 158 163 79
-0.05 -0.04 0.73 125 175 182
0.03 -0.04 0.58 125 175 182
-0.04 -0.02 0.14 60 90 160
0.05 0.12 0.55 48 77 153
-0.14 -0.20 0.66 32 34 31
-0.11 -0.09 0.68 153 155 105
-0.01 -0.03 0.63 27 68 150
0.04 -0.02 0.57 27 68 150
0.05 0.53 1.52 35 36 31
-0.05 0.29 1.08 45 84 163
-0.05 -0.01 0.31 132 183 186
-0.01 0.01 0.64 132 183 186
-0.06 -0.15 0.68 44 46 35
0.06 0.11 0.54 38 81 159
0.04 0.17 0.71 26 37 43
-0.04 0.02 0.73 138 84 46
0.08 -0.01 0.48 93 120 105
-0.03 0.12 0.79 45 86 166
0.06 0.02 0.57 126 183 190
0.08 0.05 0.56 126 183 190
0.07 0.06 0.40 16 35 155
0.02 -0.03 0.58 16 35 155
0.05 0.10 0.41 143 198 193
0.01 0.41 1.42 46 83 161
-0.04 -0.03 0.18 129 188 196
-0.02 0.10 0.77 44 73 149
0.08 0.06 0.46 18 42 140
0.07 0.06 0.43 18 42 140
-0.03 0.06 0.78 136 193 187
-0.03 0.06 0.78 136 193 187
-0.18 -0.08 0.72 47 30 20
-0.12 0.00 0.53 99 118 86
-0.09 0.04 0.69 41 57 90
0.02 -0.18 0.65 114 71 26
0.09 -0.01 0.31 23 25 20
0.06 -0.01 0.23 23 25 20
-0.06 -0.06 0.67 148 150 75
0.08 -0.01 0.44 148 150 75
0.05 0.14 0.69 6 6 6
0.02 0.16 0.78 6 6 6
0.04 0.14 0.63 11 11 9
0.05 0.13 0.71 5 5 5
0.08 0.05 0.37 67 75 94
0.05 0.13 0.62 16 16 16
0.07 0.14 0.45 2 2 2
-0.05 -0.05 0.53 93 101 88
-0.07 -0.05 0.43 93 101 88
0.06 -0.03 0.51 143 156 74
-0.05 -0.04 0.52 143 156 74
-0.04 0.18 0.99 162 146 131
0.08 -0.01 0.44 143 147 70
-0.04 -0.06 0.68 143 147 70
0.08 -0.01 0.40 69 76 68
-0.01 -0.04 0.62 166 168 95
-0.12 -0.08 0.46 102 68 31
-0.03 0.01 0.76 111 142 126
0.06 0.07 0.29 111 142 126
-0.04 -0.05 0.67 85 99 86
0.04 0.00 0.24 94 115 100
-0.01 -0.03 0.19 100 126 101
-0.01 -0.03 0.19 100 126 101
0.05 0.13 0.34 15 15 13
-0.01 -0.05 0.35 139 146 66
0.03 -0.05 0.45 139 146 66
-0.04 0.10 0.86 217 226 171
0.15 -0.14 0.53 21 23 22
-0.01 0.02 -0.08 97 61 27
-0.01 -0.00 -0.04 193 189 118
0.01 0.41 1.24 13 15 14
0.10 -0.11 0.47 102 67 39
-0.04 0.05 0.84 132 168 156
-0.12 -0.09 0.45 78 41 14
0.05 0.08 0.11 137 136 69
-0.04 -0.05 0.67 137 136 69
-0.15 -0.07 0.69 82 56 23
-0.05 -0.01 0.68 95 108 88
-0.06 0.02 0.59 214 219 155
0.07 0.06 0.21 131 133 58
0.04 -0.09 0.57 50 43 33
-0.09 -0.09 0.43 64 58 46
0.05 0.25 1.26 132 160 137
0.06 -0.02 0.47 132 160 137
-0.02 -0.06 0.56 122 123 53
-0.09 -0.07 0.13 38 43 37
0.05 -0.06 0.47 71 91 82
-0.03 0.12 0.89 81 49 38
0.01 -0.04 0.43 204 206 123
-0.03 0.12 0.88 67 48 31
0.04 0.06 0.12 151 179 165
0.08 0.35 1.36 74 47 26
-0.18 -0.09 0.54 45 45 47
0.09 0.06 0.07 52 46 48
0.10 0.03 0.67 71 44 35
0.12 -0.06 0.54 23 22 18
-0.02 -0.04 0.12 167 167 159
0.00 -0.05 0.65 167 167 159
0.03 -0.01 0.15 167 167 159
-0.14 -0.08 -0.03 62 43 29
0.01 0.07 0.79 68 41 22
0.05 0.40 1.29 91 85 89
0.10 0.04 0.67 68 48 37
0.05 0.40 1.29 91 85 89
-0.15 -0.14 0.62 32 34 31
-0.02 -0.07 0.48 57 87 61
-0.02 -0.07 0.48 57 87 61
-0.02 0.10 0.94 94 130 42
-0.03 0.07 0.92 130 151 142
-0.13 -0.04 -0.03 118 122 99
-0.30 -0.48 -1.21 53 40 31
0.08 -0.03 0.56 162 211 218
0.09 0.29 1.36 162 211 218
0.08 0.07 0.28 218 225 148
-0.11 -0.12 0.30 67 67 65
-0.09 -0.06 0.31 13 13 13
-0.02 0.03 0.80 183 213 205
0.08 -0.02 0.47 183 213 205
0.02 0.01 0.11 122 129 95
-0.04 -0.04 0.51 163 68 14
0.08 0.03 0.59 143 152 131
-0.08 -0.02 0.71 137 148 134
-0.10 -0.10 0.64 145 150 130
-0.11 -0.04 0.45 157 163 149
-0.03 -0.12 0.66 155 157 146
-0.01 0.03 0.75 124 135 95
-0.10 -0.06 0.10 108 120 106
0.11 -0.03 0.45 130 134 107
-0.01 -0.06 0.51 163 70 3
0.14 0.02 0.47 163 70 3
0.12 -0.04 0.62 238 239 181
0.08 -0.05 0.51 197 98 33
-0.05 0.01 0.82 23 24 19
-0.05 -0.04 -0.08 110 136 101
-0.01 -0.03 0.69 200 193 112
-0.01 -0.03 0.69 200 193 112
0.03 0.24 1.05 156 170 144
0.01 -0.08 0.52 135 131 70
0.12 0.50 1.34 136 149 129
0.09 -0.05 0.50 198 104 32
-0.00 0.09 0.94 198 104 32
-0.04 -0.03 0.54 157 59 0
-0.04 -0.07 0.13 74 83 78
0.08 -0.05 0.35 74 83 78
-0.06 -0.07 0.20 74 83 78
0.07 -0.03 0.31 194 94 35
0.04 0.06 0.03 49 61 47
-0.01 -0.05 0.29 166 180 180
0.05 -0.03 0.71 166 180 180
-0.10 -0.10 0.66 166 175 148
0.18 -0.03 0.55 45 38 19
0.09 -0.05 0.57 141 154 128
0.09 0.05 0.24 141 154 128
0.15 -0.02 0.60 112 145 74
0.07 0.32 1.11 153 168 139
-0.07 -0.10 0.65 148 158 134
0.04 0.14 0.90 165 170 147
0.09 -0.02 0.37 239 242 225
0.02 0.09 0.90 143 157 122
0.03 0.09 0.87 162 172 147
0.15 0.11 0.62 73 83 75
0.19 0.56 1.59 151 160 139
0.18 -0.02 0.55 30 20 8
-0.14 -0.07 0.08 30 20 8
-0.11 -0.14 0.57 181 184 163
0.02 -0.08 0.64 63 37 14
-0.07 0.00 0.49 222 214 175
0.94 2.23 4.56 76 88 76
0.13 -0.06 0.44 89 86 33
-0.00 -0.04 -0.01 95 108 90
0.05 -0.00 0.71 168 173 151
0.01 0.03 0.87 180 174 112
-0.12 -0.08 0.07 187 190 173
-0.19 -0.10 -0.17 233 237 202
0.01 0.01 0.80 233 237 202
0.08 0.11 0.66 121 133 121
0.12 -0.20 0.44 181 189 166
0.08 0.27 0.91 124 137 119
-0.05 -0.09 0.17 127 119 73
0.08 0.08 0.65 140 154 128
0.15 0.07 0.60 128 148 123
0.09 0.30 0.96 131 144 126
0.08 -0.08 0.34 76 59 16
0.11 -0.21 0.46 179 187 172
0.20 0.47 1.33 152 162 137
-0.02 -0.13 0.69 179 184 164
-0.12 -0.20 -0.22 130 149 129
0.05 -0.08 0.31 151 135 84
-0.08 -0.17 0.52 182 191 172
-0.32 -0.34 -0.72 148 170 149
0.08 0.00 0.17 26 20 8
0.12 0.06 0.28 127 141 128
-0.33 -0.41 -0.76 139 153 136
0.06 -0.04 0.84 141 135 85
0.05 -0.13 0.74 99 96 53
0.09 -0.11 0.50 120 109 55
-0.12 -0.15 -0.28 132 150 124
0.08 0.15 0.86 163 171 147
0.17 -0.18 0.44 181 186 164
0.55 0.93 1.98 142 155 135
0.03 -0.08 0.71 22 18 15
-0.02 -0.07 0.08 117 77 65
0.12 0.04 0.25 168 174 148
-0.00 -0.06 0.01 152 165 147
-0.04 -0.22 0.59 176 185 166
0.05 0.01 0.09 136 74 75
-0.01 -0.02 -0.00 171 181 154
0.07 0.02 0.15 127 157 131
0.04 0.00 0.07 133 149 122
2.09 2.48 4.95 127 153 118
0.16 -0.11 0.45 154 87 94
0.16 -0.04 0.34 154 87 94
0.12 0.08 0.25 143 159 133
-0.22 0.04 0.81 119 129 121
-0.30 -0.16 0.64 155 167 157
0.08 -0.01 -0.13 36 28 26
-0.09 0.02 0.21 15 8 15
-0.09 0.02 0.21 15 8 15
0.10 -0.00 -0.19 21 6 9
-0.41 0.21 1.10 117 30 39
-0.27 0.19 0.80 29 22 12
-0.12 0.17 0.34 187 205 209
-0.14 0.20 0.47 183 198 201
2.49 -2.21 -5.67 106 88 42
-0.15 0.21 0.47 27 26 21
-0.16 0.22 0.51 27 26 21
-0.12 0.18 0.43 22 15 9
-0.14 -0.02 0.26 95 77 39
-0.14 0.20 0.49 168 194 195
-0.15 0.21 0.52 186 205 209
-0.30 -0.20 0.72 87 81 55
-0.07 0.12 0.23 35 26 21
-0.15 0.21 0.51 35 26 21
-0.29 0.15 0.67 127 115 65
-0.12 0.18 0.37 173 192 199
-0.02 -0.03 0.35 96 77 34
0.09 -0.01 0.04 41 34 18
-0.25 0.11 0.57 53 53 29
-0.43 0.35 1.18 103 84 54
-0.32 0.24 0.92 128 114 67
-0.12 0.17 0.35 182 203 206
-0.14 -0.10 0.30 171 184 174
-0.02 -0.02 0.37 78 62 39
-0.17 0.23 0.53 36 32 20
-0.08 0.15 0.31 35 21 21
0.03 -0.02 0.24 42 40 28
-0.30 -0.18 0.68 58 50 27
-0.10 0.17 0.37 198 214 214
-0.27 0.07 0.72 111 83 36
-0.19 -0.16 0.59 117 104 60
0.11 -0.00 -0.02 144 162 146
-1.66 1.27 3.68 180 198 198
-0.11 0.18 0.42 36 27 12
0.07 0.00 -0.08 75 66 37
-0.06 -0.02 0.51 41 28 12
-0.47 0.35 1.24 72 53 21
-0.24 0.03 0.73 28 25 16
-0.29 -0.01 0.74 84 36 32
-0.10 -0.04 0.57 71 58 24
-0.01 0.02 -0.01 104 29 34
-0.54 0.56 1.56 153 139 90
-0.29 0.07 0.85 82 83 85
-0.44 0.36 1.28 139 122 78
-0.32 0.03 0.70 46 58 46
-0.13 -0.06 0.43 43 36 8
0.14 0.03 -0.29 43 36 8
-0.20 -0.03 0.60 122 125 54
-0.44 0.41 1.24 97 59 20
-0.17 0.05 0.73 67 87 78
-0.28 -0.04 0.71 51 65 42
0.11 0.04 -0.20 88 72 39
-0.25 -0.03 0.60 96 95 30
-0.39 0.36 1.16 90 87 72
-0.26 -0.04 0.72 112 107 41
-0.15 -0.02 0.62 112 107 41
-0.29 0.22 0.99 105 90 51
-0.27 0.11 0.77 105 90 51
-0.09 -0.09 0.65 80 74 52
-0.14 0.04 0.76 66 68 67
-0.25 -0.08 0.76 78 75 44
-0.26 0.18 0.96 28 54 41
-0.26 0.18 0.97 28 54 41
-0.31 0.37 1.07 210 224 225
-0.21 0.08 0.76 149 155 81
-0.24 0.03 0.72 37 49 29
-0.27 0.17 1.00 37 49 29
-0.07 -0.13 0.61 202 216 217
-0.25 0.02 0.78 32 38 24
-0.14 0.07 0.62 124 120 47
-0.59 0.56 1.69 214 226 226
0.03 0.01 0.25 83 72 27
-0.20 0.08 0.83 31 39 26
-0.24 0.03 0.74 31 39 26
0.20 0.08 -0.36 64 65 51
-0.20 -0.15 0.67 138 124 85
-0.21 0.13 0.88 125 121 60
-0.20 0.15 0.82 133 135 72
-0.17 0.07 0.53 137 149 75
-0.04 0.04 0.31 39 42 31
-0.55 0.53 1.60 204 218 219
-0.07 -0.17 0.58 204 219 224
-0.25 0.17 0.77 34 20 7
-0.23 0.19 0.83 34 20 7
-0.16 0.07 0.54 41 59 59
-0.24 0.12 0.83 41 59 59
-0.15 0.22 0.60 210 233 227
-0.19 0.27 0.74 210 233 227
-0.24 0.06 0.72 112 103 36
-0.15 0.13 0.64 125 122 53
0.06 0.00 -0.01 141 141 69
-0.02 0.02 -0.03 180 190 181
-0.19 -0.01 0.56 67 98 92
-0.19 -0.01 0.56 67 98 92
-0.23 0.08 0.82 121 113 40
-0.31 0.27 1.12 63 75 71
-0.30 0.26 1.08 63 75 71
-0.48 0.49 1.47 215 227 227
-0.29 0.24 1.06 35 42 26
-0.07 -0.12 0.34 203 218 221
-0.18 0.25 0.69 213 223 225
-0.21 0.28 0.81 213 223 225
-0.14 0.08 0.76 80 101 96
0.03 0.01 0.11 80 101 96
-0.19 -0.07 0.69 146 143 74
-0.19 -0.06 0.68 140 144 60
-0.23 0.09 0.66 59 31 10
-0.24 0.12 0.82 109 97 37
-0.26 0.13 0.87 41 47 35
-0.19 -0.03 0.73 143 140 59
-0.25 0.15 0.93 110 103 33
-0.18 -0.07 0.64 78 99 102
-0.14 0.09 0.80 82 39 22
-0.17 0.12 0.84 73 94 77
-0.27 0.28 1.04 33 45 31
-0.16 -0.02 0.69 76 29 23
-0.22 0.19 0.90 118 119 43
-0.13 0.03 0.61 143 142 59
-0.14 0.05 0.72 143 142 59
-0.19 0.17 0.79 34 49 26
-0.22 0.19 0.89 34 49 26
-0.26 0.32 1.05 144 128 94
-0.06 0.06 0.44 75 96 91
-0.23 0.21 0.91 122 122 58
-0.12 0.03 0.65 144 147 58
-0.18 0.01 0.72 144 147 58
-0.17 0.01 0.68 144 147 58
0.07 0.00 -0.09 131 136 44
-0.23 0.08 0.84 143 148 144
-0.14 -0.05 0.48 59 76 66
0.05 0.02 0.24 25 40 105
-0.09 -0.09 0.60 25 40 105
-0.06 -0.06 0.55 25 40 105
-0.18 -0.02 0.58 144 137 118
-0.17 -0.07 0.65 152 155 76
-0.06 -0.02 0.51 152 155 76
-0.21 -0.02 0.69 83 45 34
-0.15 0.22 0.62 207 218 220
-0.15 0.22 0.62 207 218 220
-0.11 -0.19 0.60 211 222 224
-0.15 0.08 0.62 92 104 90
-0.06 -0.06 0.54 23 51 98
-0.21 0.04 0.75 93 120 105
-0.22 0.21 0.94 43 70 55
-0.09 -0.05 0.48 147 158 66
-0.05 -0.07 0.55 25 49 97
-0.15 -0.14 0.73 25 49 97
-0.15 -0.14 0.73 25 49 97
-0.05 -0.02 0.19 153 157 73
-0.18 -0.09 0.68 153 157 73
-0.11 -0.05 0.39 153 157 73
-0.09 0.04 0.69 145 144 123
-0.18 0.02 0.67 149 148 55
0.15 0.03 -0.41 147 146 63
-0.01 0.01 0.33 147 146 63
-0.19 0.08 0.79 146 142 71
-0.17 0.11 0.76 144 136 71
-0.21 0.18 0.88 77 98 89
-0.19 0.22 0.91 142 138 65
-0.09 0.03 0.43 63 80 72
-0.22 0.06 0.80 63 80 72
-0.19 0.08 0.80 150 143 65
-0.15 0.14 0.84 150 143 65
-0.15 0.12 0.82 145 145 59
-0.19 0.21 0.89 140 135 54
-0.20 0.22 0.93 145 143 69
-0.25 0.32 1.04 203 213 212
-0.13 0.06 0.70 146 143 64
-0.17 0.12 0.69 145 140 56
-0.23 -0.05 0.52 133 153 144
-0.06 -0.01 0.07 63 71 82
-0.19 0.12 0.82 145 142 61
-0.22 0.27 0.98 146 121 81
-0.09 0.04 0.60 83 116 109
-0.19 0.09 0.81 144 145 69
-0.21 0.21 0.93 136 139 52
-0.15 -0.05 0.57 160 164 77
-0.22 0.03 0.80 156 152 78
-0.21 0.03 0.81 156 152 78
-0.13 0.09 0.62 52 67 62
-0.19 0.13 0.84 52 67 62
-0.13 0.09 0.62 52 67 62
-0.20 0.21 0.89 75 104 86
-0.21 0.22 0.94 75 104 86
-0.26 -0.03 0.71 170 172 99
-0.17 0.07 0.69 143 140 69
-0.19 0.09 0.83 50 70 61
-0.10 0.05 0.49 50 70 61
-0.19 0.09 0.83 50 70 61
-0.22 0.20 0.94 148 143 62
-0.21 0.29 1.01 207 213 213
-0.07 -0.13 0.57 133 150 142
-0.18 0.11 0.75 141 145 58
-0.02 -0.12 0.60 215 224 223
0.11 0.03 -0.38 87 125 110
-0.20 0.22 0.91 81 101 90
-0.15 -0.04 0.39 172 174 91
-0.25 -0.09 0.63 133 156 136
0.05 0.01 0.25 109 53 26
-0.17 -0.04 0.70 155 158 69
-0.05 -0.00 0.52 155 158 69
-0.08 0.02 0.50 63 48 43
0.00 -0.02 0.57 100 49 30
-0.15 -0.08 0.53 107 138 130
-0.10 0.07 0.67 153 152 72
-0.11 0.06 0.69 153 152 72
-0.16 0.09 0.74 117 112 109
0.04 0.03 0.26 169 167 90
-0.05 -0.04 0.28 169 167 90
-0.12 0.08 0.62 146 147 77
-0.13 0.08 0.55 146 147 77
-0.21 -0.11 0.59 157 168 126
-0.22 0.33 1.04 217 226 225
-0.16 -0.02 0.74 171 166 85
-0.18 0.23 0.94 154 149 81
-0.18 0.22 0.90 154 149 81
-0.19 0.22 0.91 154 149 81
-0.21 0.27 1.01 58 79 74
-0.19 0.24 0.94 58 79 74
-0.17 0.08 0.71 88 125 108
-0.17 0.08 0.71 88 125 108
0.07 0.01 -0.15 78 113 106
-0.09 -0.10 0.60 176 171 89
-0.14 -0.11 0.66 176 171 89
-0.16 -0.00 0.73 169 162 74
-0.15 0.02 0.71 161 163 80
-0.20 0.29 1.00 102 123 80
-0.20 -0.05 0.71 168 168 82
-0.13 0.01 0.61 170 164 86
-0.16 0.01 0.74 170 164 86
-0.11 -0.13 0.61 113 47 31
-0.17 0.24 0.94 105 82 64
-0.20 0.30 1.01 220 225 228
0.01 -0.03 0.35 104 140 126
-0.07 -0.00 0.36 37 57 45
-0.07 -0.00 0.36 37 57 45
-0.06 0.04 0.64 37 57 45
-0.12 0.15 0.88 162 160 85
-0.15 0.12 0.80 149 156 76
0.05 -0.04 -0.26 149 156 76
-0.05 0.01 0.52 172 167 83
-0.16 0.03 0.75 50 70 71
-0.17 0.09 0.79 95 122 117
-0.17 0.09 0.79 95 122 117
-0.18 -0.13 0.75 175 177 93
-0.18 -0.08 0.57 175 177 93
-0.02 -0.04 0.41 177 180 89
-0.17 0.28 0.89 219 223 224
-0.08 -0.07 0.47 107 143 131
0.02 0.00 0.01 221 229 231
-0.04 -0.02 0.08 221 229 231
-0.11 -0.06 0.49 175 177 93
-0.15 -0.01 0.72 172 171 79
-0.16 -0.09 0.59 99 137 126
-0.07 0.03 0.57 171 169 84
-0.20 0.22 0.96 174 167 141
-0.07 0.00 0.56 90 123 106
0.02 -0.04 0.17 215 225 226
-0.17 -0.14 0.53 215 225 226
-0.19 -0.23 0.74 220 228 230
-0.16 -0.03 0.65 96 128 117
-0.18 -0.03 0.70 96 128 117
-0.17 -0.07 0.71 181 183 100
-0.04 -0.04 0.40 181 183 100
-0.14 0.17 0.88 183 181 122
-0.17 0.17 0.90 183 181 122
-0.03 0.04 0.22 130 141 135
-0.16 0.27 0.94 85 116 100
-0.09 -0.08 0.49 180 179 99
-0.07 0.09 0.57 167 166 99
-0.08 0.07 0.72 154 73 54
-0.17 0.08 0.82 176 169 88
-0.17 0.11 0.76 78 107 103
-0.04 0.06 0.51 153 71 49
-0.10 -0.03 0.39 180 180 94
-0.10 -0.03 0.39 180 180 94
-0.16 0.23 0.95 193 191 134
-0.14 0.23 0.90 193 191 134
-0.06 -0.02 0.48 184 182 99
-0.19 -0.00 0.76 184 182 99
-0.13 -0.06 0.63 106 140 126
-0.13 -0.06 0.63 106 140 126
-0.12 0.06 0.68 179 170 95
-0.19 0.35 1.21 143 142 140
-0.14 -0.05 0.67 184 182 95
-0.18 0.01 0.77 185 184 104
-0.11 0.01 0.51 183 182 100
-0.18 0.02 0.79 185 182 103
-0.11 0.18 0.82 203 199 136
-0.16 0.09 0.86 176 178 94
-0.12 0.20 0.84 202 196 136
-0.09 0.16 0.73 103 129 118
-0.06 -0.07 0.55 100 134 120
-0.09 0.12 0.72 200 195 137
-0.15 0.24 0.94 206 201 135
-0.02 -0.18 0.59 215 225 226
-0.17 0.25 0.99 121 142 145
-0.10 0.19 0.76 121 142 145
-0.17 0.27 1.03 189 189 119
-0.04 0.01 0.57 191 187 96
-0.19 0.40 1.11 221 231 232
-0.19 0.37 1.06 221 231 232
-0.13 0.02 0.66 181 183 99
-0.12 0.07 0.71 189 181 109
-0.14 0.08 0.82 189 181 109
-0.01 0.00 0.44 111 154 135
-0.17 0.21 0.97 196 193 114
-0.17 -0.09 0.38 213 222 221
-0.11 -0.07 0.62 183 188 104
-0.15 0.12 0.85 117 152 146
-0.11 0.14 0.81 205 197 125
-0.04 -0.06 0.53 115 150 128
-0.15 0.16 0.88 204 196 124
-0.13 0.19 0.89 135 169 155
-0.13 0.19 0.89 135 169 155
0.03 0.02 -0.03 214 222 224
-0.16 0.17 0.91 125 155 145
-0.12 0.23 0.77 194 217 207
-0.10 0.19 0.78 194 217 207
-0.16 0.32 0.99 224 233 232
-0.14 0.14 0.83 143 171 156
-0.14 0.14 0.83 143 171 156
-0.05 -0.07 0.46 195 197 114
-0.15 0.27 1.00 215 212 157
-0.15 0.24 0.95 215 212 157
-0.05 -0.01 0.48 198 192 114
-0.05 -0.01 0.48 198 192 114
-0.13 -0.12 0.39 215 224 223
-0.17 -0.20 0.65 215 224 223
-0.05 0.10 0.61 207 201 139
-0.17 -0.12 0.56 149 157 106
-0.13 0.12 0.80 207 206 141
0.05 -0.05 0.43 75 95 83
-0.15 0.18 0.93 127 165 150
-0.13 0.15 0.84 127 165 150
-0.14 0.17 0.90 125 165 141
-0.11 0.10 0.74 122 163 147
-0.13 0.12 0.81 122 163 147
-0.15 0.22 0.96 126 161 141
-0.10 0.14 0.73 126 161 141
-0.31 1.00 3.86 216 211 145
-0.08 0.11 0.69 212 210 133
-0.06 0.03 -0.09 211 223 223
-0.19 -0.05 0.53 57 53 50
0.05 -0.07 0.54 57 53 50
-0.13 0.18 0.88 214 206 141
-0.06 0.04 0.43 210 206 145
0.02 0.03 0.59 197 183 174
-0.08 -0.05 0.47 197 183 174
-0.05 0.14 0.73 124 105 101
-0.03 -0.03 0.72 153 88 84
-0.10 0.07 0.76 125 157 144
-0.15 0.14 0.93 125 157 144
0.06 -0.06 0.39 219 224 227
-0.15 -0.15 0.58 219 224 227
-0.05 -0.04 0.21 26 60 124
-0.10 -0.05 0.72 202 182 173
-0.18 0.05 0.85 202 182 173
0.01 0.03 0.42 130 114 115
-0.12 0.13 0.82 214 209 143
-0.04 -0.17 0.46 208 218 217
-0.03 0.16 0.54 221 220 155
-0.03 0.06 0.55 214 210 139
0.03 0.02 0.13 208 162 165
0.03 0.02 0.13 208 162 165
-0.11 0.02 0.72 131 166 146
-0.11 0.02 0.72 131 166 146
-0.04 0.07 0.70 209 208 141
-0.06 0.20 0.67 137 167 155
-0.09 0.16 0.85 137 167 155
-0.06 0.20 0.80 220 220 150
-0.12 0.40 1.13 219 228 227
-0.11 0.49 1.36 219 228 227
0.01 -0.07 0.54 30 60 130
-0.05 -0.11 0.60 30 60 130
-0.03 0.00 -0.02 117 114 107
-0.12 0.14 0.81 147 176 174
-0.12 0.14 0.89 147 176 174
-0.06 0.18 0.62 147 176 174
-0.07 0.54 1.53 188 202 203
-0.12 -0.07 0.34 139 145 73
-0.02 0.16 0.54 135 158 189
-0.13 0.22 0.97 142 180 167
-0.12 -0.10 0.77 115 165 153
0.02 -0.02 0.40 115 165 153
-0.00 0.01 0.56 126 162 152
-0.00 -0.05 0.64 164 96 97
-0.02 0.05 0.57 209 207 122
-0.09 0.18 0.87 149 181 160
-0.06 -0.06 0.39 199 195 104
-0.02 -0.07 0.64 141 81 89
-0.04 0.12 0.68 143 175 160
-0.09 0.14 0.72 143 175 160
-0.08 0.19 0.87 214 211 130
-0.11 0.08 0.74 211 204 114
-0.11 0.09 0.74 211 204 114
-0.11 0.11 0.85 221 216 158
-0.04 0.08 0.78 221 216 158
0.01 -0.02 0.07 198 208 209
-0.04 -0.09 0.50 112 167 174
0.02 0.00 0.02 191 205 205
0.06 0.08 0.12 121 72 67
-0.09 0.54 1.34 84 76 73
-0.00 0.14 0.50 139 178 157
-0.01 0.14 0.56 130 162 139
-0.09 0.02 0.71 216 210 134
-0.12 0.35 1.10 40 49 44
-0.11 0.18 0.90 168 118 107
-0.11 0.32 1.15 222 217 126
-0.10 -0.04 0.69 207 201 117
-0.15 -0.21 0.70 85 85 85
-0.12 0.12 0.89 213 211 137
0.00 -0.13 0.59 69 92 76
0.00 -0.13 0.59 69 92 76
-0.12 0.10 0.88 122 160 139
-0.10 0.17 0.90 213 210 195
-0.08 0.13 0.83 213 210 195
0.02 -0.05 0.54 144 71 39
0.00 0.03 0.54 215 212 131
-0.07 0.03 0.65 215 212 131
-0.00 0.04 0.58 207 205 130
0.05 0.05 0.40 165 168 161
-0.09 0.11 0.76 221 222 144
0.04 -0.01 0.32 133 56 26
-0.08 0.08 0.80 212 205 124
-0.11 -0.09 0.51 158 162 88
-0.01 -0.03 0.41 212 207 115
-0.03 0.04 0.50 215 213 128
-0.06 0.10 0.71 120 90 90
-0.09 0.17 0.92 229 216 200
-0.03 -0.19 0.51 89 83 83
-0.02 -0.02 0.52 210 208 134
-0.07 0.07 0.76 140 170 160
-0.11 -0.09 0.52 96 123 106
-0.09 0.03 0.61 219 216 147
0.04 0.07 0.57 219 216 147
0.03 0.02 0.43 129 159 147
-0.04 0.01 0.43 217 215 130
-0.09 0.06 0.70 217 215 130
-0.07 0.10 0.67 217 213 204
0.04 0.08 0.49 217 210 140
0.08 -0.16 0.55 41 43 42
-0.07 0.08 0.75 215 218 129
0.00 0.11 0.69 163 96 80
0.01 0.11 0.63 163 96 80
-0.09 0.04 0.74 221 219 160
-0.01 0.00 0.65 221 219 160
0.16 3.90 10.88 68 68 56
-0.04 0.58 1.61 68 68 56
0.02 -0.03 0.58 215 203 117
0.03 0.09 0.20 64 100 90
0.03 0.05 0.24 64 100 90
-0.11 -0.06 0.23 80 43 17
-0.20 -0.07 0.53 50 48 49
0.03 -0.03 0.22 94 117 101
-0.10 -0.09 0.53 94 117 101
-0.16 -0.18 0.66 56 55 53
0.02 0.11 0.54 129 172 162
0.01 2.14 5.26 38 42 41
0.01 0.12 0.53 22 22 22
0.06 -0.04 0.56 100 129 98
-0.00 0.05 0.76 145 176 160
0.02 0.13 0.46 137 89 69
0.04 0.04 0.44 218 215 144
0.03 0.14 0.71 220 216 119
-0.07 0.13 0.74 134 87 77
0.03 0.11 0.58 119 58 55
0.02 0.12 0.47 29 34 28
-0.06 -0.14 0.64 160 162 97
-0.04 -0.06 0.23 160 162 97
0.07 -0.05 0.54 152 161 80
-0.03 0.00 0.56 215 217 216
-0.03 0.00 0.56 215 217 216
0.01 0.02 0.18 74 74 50
-0.11 -0.06 0.72 102 123 80
0.10 0.75 1.94 49 44 41
-0.09 -0.09 0.57 93 111 99
-0.09 -0.09 0.57 93 111 99
-0.08 0.25 1.04 221 216 122
-0.09 -0.10 0.68 105 127 114
-0.09 -0.07 0.49 105 127 114
-0.06 -0.08 0.48 98 115 83
-0.08 0.12 0.84 219 214 122
-0.06 0.07 0.69 219 214 122
-0.01 0.62 1.91 151 78 25
-0.05 0.36 1.13 120 90 66
-0.07 0.16 0.88 172 184 172
-0.05 0.44 1.34 177 196 200
-0.06 -0.21 0.58 16 16 14
-0.14 0.01 0.81 157 162 78
-0.07 -0.03 0.13 99 133 98
-0.03 0.67 1.89 35 36 31
-0.07 0.05 0.73 218 212 124
-0.05 0.00 0.38 218 212 124
-0.02 -0.09 0.62 110 132 93
-0.04 -0.06 0.25 57 71 56
-0.06 0.04 0.65 128 166 145
-0.06 -0.14 0.64 67 56 38
-0.12 0.01 0.66 102 136 99
-0.01 -0.05 -0.14 63 55 53
-0.14 -0.20 0.68 21 21 19
-0.08 -0.06 0.48 160 164 87
-0.09 -0.03 0.86 96 141 102
-0.05 0.14 0.84 77 104 159
-0.12 -0.09 0.80 151 154 87
-0.04 -0.03 0.20 17 61 158
-0.06 0.32 1.03 31 37 35
-0.09 -0.06 0.67 98 126 103
-0.11 0.03 0.68 96 135 106
-0.04 -0.03 0.22 8 62 150
0.03 -0.07 0.59 110 67 35
-0.08 0.03 0.85 24 63 166
0.13 0.90 2.29 6 11 15
-0.11 -0.08 0.68 142 145 100
-0.01 -0.02 0.66 5 56 163
0.04 -0.01 0.57 5 56 163
0.01 0.63 1.65 30 35 38
-0.05 0.06 0.81 153 74 41
-0.05 0.27 0.99 12 12 12
-0.02 -0.01 -0.02 168 169 111
-0.11 -0.05 0.60 168 169 111
0.02 -0.09 0.49 168 169 111
0.03 0.13 0.75 57 59 48
-0.01 0.01 -0.09 167 171 86
-0.04 -0.06 0.04 38 43 39
-0.03 -0.15 0.64 51 48 39
0.04 0.01 0.59 149 81 32
-0.03 -0.03 0.17 149 81 32
-0.09 -0.05 0.42 163 167 90
0.05 -0.00 0.23 163 167 90
0.03 -0.01 0.60 134 189 196
-0.06 0.12 0.94 175 94 67
-0.07 -0.11 0.54 79 78 74
0.08 -0.07 0.62 159 164 97
-0.15 -0.05 0.24 104 74 46
0.04 0.01 0.58 148 70 34
0.15 1.05 2.51 2 2 4
-0.03 -0.15 0.64 88 84 75
0.10 -0.04 0.63 85 104 84
0.10 -0.14 0.60 113 83 57
-0.13 -0.12 0.65 113 83 57
-0.09 0.02 0.54 49 63 100
0.07 0.00 0.12 39 34 30
0.08 0.03 0.40 99 81 45
0.13 0.56 1.98 123 151 201
0.07 -0.01 0.57 50 64 109
0.01 0.34 1.30 162 141 122
0.09 -0.13 0.59 23 24 19
0.06 0.00 0.23 17 12 9
-0.03 0.24 0.92 4 4 4
0.05 0.12 0.32 5 5 5
0.10 -0.08 0.60 52 54 41
0.13 -0.10 0.46 47 44 35
-0.11 -0.16 0.70 98 69 29
0.07 -0.03 0.48 60 68 57
-0.07 -0.04 0.49 60 68 57
0.07 0.12 0.57 10 10 10
-0.02 0.25 0.90 4 4 6
-0.13 -0.07 0.30 106 64 22
0.09 0.06 0.51 141 165 139
-0.09 -0.00 0.83 139 138 71
0.08 0.00 0.38 78 102 88
0.04 -0.06 0.46 78 102 88
0.09 0.02 0.57 216 226 166
-0.12 -0.20 0.69 41 42 36
-0.05 -0.05 0.61 139 137 50
-0.03 -0.06 0.67 139 137 50
0.04 -0.19 0.53 73 52 31
-0.00 0.23 1.16 161 197 187
-0.04 -0.05 0.69 80 96 83
-0.05 -0.05 0.69 80 96 83
-0.16 -0.09 0.31 36 35 33
-0.04 -0.02 0.78 141 148 80
0.05 -0.05 0.48 141 148 80
-0.14 -0.15 0.58 32 34 29
-0.05 -0.02 0.75 83 105 93
0.02 0.06 -0.05 107 133 124
0.04 0.07 0.06 131 135 41
-0.09 -0.04 0.74 40 34 22
0.10 0.06 0.53 126 134 111
0.13 -0.10 0.59 72 70 58
0.09 0.14 0.62 8 8 8
-0.04 0.08 0.87 165 199 200
0.16 -0.09 0.47 64 63 61
-0.03 -0.07 0.13 64 63 61
-0.09 -0.04 0.74 99 102 95
-0.04 -0.26 0.71 30 33 26
0.12 -0.02 0.31 119 108 76
-0.02 -0.14 0.64 101 102 84
0.09 -0.01 0.28 128 129 123
-0.07 -0.04 0.76 27 28 23
-0.06 -0.07 0.76 106 109 100
0.10 -0.08 0.54 27 28 23
-0.01 -0.02 0.04 130 136 122
-0.02 -0.14 0.70 109 116 100
0.03 0.04 0.02 116 118 105
-4.05 -14.67 -32.56 18 20 15
0.06 0.02 0.16 54 70 57
-0.04 -0.00 0.81 65 89 67
0.12 0.00 0.64 71 102 35
-0.12 -0.03 0.38 15 15 13
0.12 0.01 0.35 158 169 161
0.08 -0.14 0.61 158 169 161
0.14 -0.16 0.49 68 72 57
-0.02 0.10 0.94 249 255 221
0.01 0.03 -0.02 75 84 81
0.12 0.08 0.54 55 55 47
-0.09 -0.07 0.26 9 9 9
0.04 -0.02 0.32 104 107 78
0.09 0.06 0.34 143 156 126
0.02 0.01 0.08 202 196 108
0.08 0.02 0.58 144 158 135
-0.01 0.13 0.95 191 225 226
0.06 0.10 0.09 135 132 51
0.08 -0.04 0.51 220 224 140
-0.03 -0.03 0.61 187 186 106
0.05 -0.08 0.64 128 133 103
0.03 -0.05 0.62 180 82 35
0.13 0.01 0.45 180 82 35
-0.01 0.12 0.87 71 76 56
-0.03 -0.06 0.35 183 182 100
0.18 0.62 1.57 123 139 113
-0.06 0.03 0.54 139 145 111
-0.05 -0.07 0.26 125 126 50
0.04 -0.04 0.27 181 85 34
0.11 0.04 0.33 181 85 34
0.03 0.05 0.06 93 126 105
0.05 -0.14 0.70 82 82 84
0.06 -0.09 0.49 115 110 16
0.01 -0.10 0.63 115 110 16
-0.01 0.02 0.57 160 167 149
0.00 0.06 0.81 146 152 124
0.12 0.02 0.37 182 87 39
0.12 0.58 1.37 29 40 36
0.05 -0.08 0.69 68 95 80
0.09 -0.09 0.50 116 118 43
0.18 -0.02 0.55 116 118 43
0.10 0.05 0.26 124 119 51
0.08 0.46 1.19 81 90 87
0.00 0.09 0.93 178 77 31
0.08 0.02 0.23 178 77 31
0.02 0.14 0.98 87 57 29
0.15 0.01 0.43 40 32 11
0.06 0.24 1.06 161 171 147
-0.01 -0.03 0.67 156 151 95
-0.00 -0.13 0.78 143 152 133
0.00 -0.10 0.33 133 142 121
0.01 -0.02 0.82 31 28 19
-0.00 -0.04 0.83 114 119 89
0.16 0.58 1.31 81 91 83
0.01 -0.08 0.79 113 118 95
0.06 0.05 0.07 105 108 65
0.21 -0.03 0.53 97 84 29
0.09 0.02 0.37 69 92 74
0.15 0.07 0.48 138 148 137
0.23 0.67 1.44 116 124 109
0.20 0.02 0.52 172 180 157
0.50 1.05 2.19 124 137 120
0.22 0.49 1.36 146 161 132
0.07 0.11 0.63 114 133 105
0.04 -0.10 0.53 100 78 20
0.04 0.05 0.05 89 72 42
0.10 -0.07 0.63 219 217 166
0.10 0.11 0.24 140 163 134
0.11 0.02 0.48 140 163 134
0.12 -0.15 0.60 81 80 34
0.17 0.05 0.47 142 157 128
0.13 0.05 0.32 116 136 111
0.29 0.50 1.47 164 172 151
0.05 0.05 0.09 147 145 86
-0.07 -0.20 0.50 180 184 170
-0.00 0.01 0.00 114 141 106
0.17 -0.03 0.54 173 183 148
0.02 -0.09 0.75 137 73 87
0.04 -0.10 0.59 161 163 114
0.21 0.52 1.26 142 152 128
0.04 -0.01 0.09 147 155 118
-0.02 -0.07 -0.03 135 153 127
0.15 0.42 1.07 135 153 127
0.19 0.06 0.43 124 133 112
0.00 -0.07 0.68 120 57 66
0.05 0.04 0.03 176 184 160
0.27 -0.10 0.53 179 182 165
-0.14 -0.02 -0.18 153 165 141
0.20 0.05 0.47 136 150 124
0.14 0.06 -0.31 72 69 50
-0.28 -0.02 0.56 111 108 101
0.16 0.03 -0.34 64 36 14
-0.32 0.12 0.81 71 37 12
0.15 0.01 -0.12 147 160 151
-0.18 -0.01 0.70 59 45 16
-0.21 -0.00 0.71 61 5 16
-0.16 -0.10 0.42 65 42 24
-0.11 -0.08 0.34 65 42 24
-0.17 -0.15 0.51 138 138 140
0.02 -0.05 0.24 138 138 140
-0.20 -0.05 0.72 41 28 12
-0.32 0.27 0.93 62 53 46
-0.04 -0.10 0.41 158 175 167
-0.27 -0.02 0.56 90 26 27
-0.19 -0.18 0.55 160 182 169
-0.32 0.15 0.99 81 89 92
-0.04 0.02 0.37 98 25 36
-0.33 0.23 1.01 133 113 63
-0.12 -0.09 0.40 106 113 106
-0.25 -0.05 0.57 59 55 43
1.59 -0.51 -3.99 133 116 70
-0.13 -0.07 0.41 94 96 93
-0.49 0.41 1.25 67 48 16
0.18 0.04 -0.18 166 179 170
-0.25 0.10 0.77 135 108 63
-0.34 0.30 1.03 125 110 67
-0.14 0.00 0.49 27 17 18
-0.11 -0.01 0.66 50 34 19
-0.15 -0.00 0.66 27 22 18
-0.10 -0.10 0.63 59 57 36
-0.17 0.07 0.75 64 70 60
-0.20 -0.07 0.64 64 70 60
0.04 -0.01 0.19 71 64 38
0.12 -0.01 -0.10 145 152 75
-0.28 0.10 0.70 122 124 119
-0.28 -0.08 0.70 31 22 13
-0.22 -0.00 0.51 146 152 80
-0.12 -0.01 0.60 33 31 16
-0.11 0.00 0.20 125 129 68
-0.39 0.37 1.20 131 120 75
-0.18 -0.04 0.54 128 134 64
-0.16 0.06 0.73 128 134 64
-0.09 -0.04 0.63 67 45 21
-0.37 0.30 1.12 45 24 7
0.05 0.00 -0.04 103 80 46
-0.29 0.29 0.93 138 134 89
-0.28 0.09 0.80 96 75 32
-0.38 0.27 1.17 96 75 32
-0.23 0.00 0.59 62 90 78
-0.19 0.01 0.61 133 135 60
-0.27 0.18 0.99 151 154 85
-0.20 0.15 0.79 151 154 85
-0.28 0.18 0.99 151 154 85
-0.23 0.00 0.68 66 57 52
-0.27 0.09 0.68 149 153 77
0.08 0.02 -0.10 12 9 2
-0.23 -0.08 0.66 31 16 9
-0.20 -0.07 0.56 31 16 9
-0.25 0.20 0.86 42 25 9
-0.26 -0.16 0.65 179 189 181
-0.25 0.24 0.87 61 43 19
-0.38 0.39 1.18 61 43 19
-0.00 -0.01 0.34 33 18 13
-0.35 0.31 1.13 35 25 13
-0.23 0.16 0.88 107 100 20
-0.25 0.14 0.76 51 39 25
-0.25 0.13 0.74 142 152 81
-0.21 0.08 0.60 25 38 29
-0.20 -0.06 0.49 58 36 13
-0.23 0.08 0.82 120 114 38
-0.15 0.06 0.83 146 148 75
-0.19 -0.01 0.56 138 138 48
-0.15 0.02 0.73 138 138 48
-0.19 0.13 0.74 122 118 47
-0.18 -0.05 0.47 43 66 50
-0.02 -0.00 0.03 43 66 50
-0.20 -0.03 0.71 145 147 64
-0.19 -0.04 0.53 35 58 48
-0.19 -0.06 0.68 35 58 48
0.08 0.01 0.01 168 179 165
-0.19 -0.16 0.51 199 217 219
-0.27 -0.11 0.70 13 8 2
-0.19 -0.05 0.69 138 146 61
-0.13 0.08 0.68 147 140 59
-0.23 0.12 0.71 18 27 24
-0.52 0.45 1.73 179 177 103
-0.17 -0.02 0.59 151 151 65
0.00 -0.04 0.15 211 225 226
-0.94 0.61 3.33 122 105 35
-1.23 0.78 4.27 122 105 35
-0.16 0.09 0.70 80 27 9
-0.17 0.02 0.55 146 149 62
-0.18 0.14 0.85 118 110 108
-0.17 -0.09 0.68 151 151 77
-0.24 0.08 0.81 89 86 79
-0.06 -0.05 0.58 21 32 114
-0.19 0.04 0.66 142 142 52
-0.19 0.04 0.66 142 142 52
-0.20 0.03 0.76 147 149 65
-0.18 0.02 0.73 147 149 65
-0.09 0.01 0.38 58 73 76
-0.17 0.02 0.70 58 73 76
-0.17 0.02 0.70 58 73 76
-0.17 0.15 0.89 66 86 84
-0.27 0.34 1.09 149 131 91
-0.16 0.01 0.61 145 152 57
-0.11 0.03 0.52 145 148 59
-0.19 0.04 0.78 145 148 59
-0.17 -0.07 0.68 154 157 68
-0.26 -0.05 0.63 17 31 92
-0.18 0.09 0.75 146 139 67
-0.71 0.50 2.76 148 146 69
-0.18 0.13 0.78 148 146 69
0.00 -0.00 0.22 39 62 54
-0.17 -0.05 0.64 150 156 68
-0.19 0.17 0.92 106 104 81
-0.21 0.19 0.86 75 91 90
-0.21 0.19 0.86 75 91 90
-0.11 0.09 0.66 148 145 68
-0.18 0.07 0.70 148 145 68
-0.12 -0.07 0.56 160 160 88
-0.03 0.03 0.59 160 160 88
-0.17 0.11 0.78 148 145 68
-0.20 0.12 0.85 148 145 68
-0.01 -0.00 0.02 87 118 110
-0.20 0.03 0.61 87 91 92
-0.24 -0.15 0.56 212 223 225
-0.14 0.11 0.66 148 145 68
-0.20 0.14 0.79 148 145 68
-0.20 0.14 0.87 148 145 68
-0.14 0.14 0.85 152 152 66
-0.06 0.05 0.56 121 116 120
-0.17 0.05 0.63 153 150 73
-0.15 0.04 0.72 153 150 73
-0.13 -0.05 0.58 162 165 74
-0.13 -0.05 0.58 162 165 74
-0.14 -0.04 0.51 162 165 74
0.03 -0.08 0.50 209 223 226
-0.19 0.22 0.95 145 143 56
0.05 0.03 0.14 171 168 87
-0.14 0.15 0.85 144 145 65
-0.14 0.15 0.85 144 145 65
-0.13 -0.03 0.59 92 95 84
-0.07 -0.04 0.55 167 168 75
-0.16 -0.07 0.67 167 168 75
-0.18 0.06 0.79 85 97 95
-0.10 0.08 0.70 85 97 95
-0.21 0.06 0.83 158 153 69
-0.19 0.24 0.95 147 145 68
-0.06 -0.03 0.30 76 101 95
-0.20 -0.05 0.71 76 101 95
-0.14 0.06 0.66 165 159 83
-0.06 -0.05 0.51 176 176 88
-0.02 -0.04 0.45 95 134 116
-0.11 -0.07 0.50 177 176 86
-0.09 0.03 0.60 167 164 85
-0.15 0.03 0.75 167 164 85
-0.06 0.02 0.61 177 176 84
-0.14 -0.06 0.65 177 176 86
-0.08 -0.07 0.47 106 142 130
-0.14 0.13 0.85 99 103 102
0.01 -0.01 0.28 178 178 80
-0.12 0.07 0.64 175 172 101
-0.15 -0.04 0.71 184 179 87
-0.15 -0.04 0.71 184 179 87
-0.02 -0.02 0.44 185 187 104
-0.18 0.31 0.98 221 226 229
-0.18 0.23 0.96 150 116 106
-0.00 -0.02 0.47 155 120 118
-0.00 -0.02 0.27 155 120 118
-0.03 0.04 0.59 179 182 93
-0.19 -0.06 0.44 144 164 139
-0.13 -0.02 0.55 25 41 38
-0.13 -0.02 0.55 25 41 38
0.04 -0.00 -0.20 148 67 40
-0.04 0.07 0.56 148 67 40
-0.22 -0.12 0.67 158 168 115
-0.14 -0.07 0.65 60 85 81
-0.05 -0.04 0.36 60 85 81
-0.13 -0.07 0.62 60 85 81
-0.12 0.13 0.84 186 184 110
-0.19 0.16 0.93 186 184 110
-0.10 0.16 0.79 190 186 125
-0.17 0.27 0.98 200 199 168
-0.10 -0.03 0.59 182 178 87
-0.18 0.01 0.78 49 65 62
-0.18 0.01 0.78 49 65 62
-0.18 0.01 0.78 49 65 62
-0.10 0.11 0.51 198 192 118
-0.17 0.26 0.99 209 205 157
-0.13 0.13 0.87 115 147 146
-0.14 0.01 0.67 187 185 98
-0.09 0.17 0.74 151 151 143
-0.07 -0.07 0.49 190 187 94
-0.11 -0.06 0.45 190 187 94
-0.13 -0.20 0.58 212 224 224
-0.15 0.07 0.84 188 188 102
-0.18 0.10 0.88 188 188 102
-0.09 -0.03 0.47 113 129 129
-0.14 0.00 0.55 192 189 96
-0.10 -0.02 0.45 192 189 96
-0.03 0.03 0.53 191 190 100
-0.15 0.01 0.78 191 190 100
-0.13 0.06 0.85 163 83 56
-0.16 0.09 0.85 161 67 39
-0.04 -0.03 0.37 190 186 97
-0.12 -0.05 0.47 192 189 92
-0.14 0.01 0.56 196 190 104
-0.06 0.12 0.76 165 74 53
0.05 0.10 -0.29 215 224 223
-0.15 0.20 0.94 213 211 150
0.00 -0.04 0.57 196 193 98
-0.12 -0.07 0.62 85 115 107
-0.13 -0.07 0.69 85 115 107
0.00 -0.00 0.51 196 192 105
-0.10 -0.06 0.58 196 192 105
-0.17 0.01 0.78 192 192 96
-0.15 0.13 0.86 207 199 136
-0.11 0.25 0.89 233 235 234
-0.08 0.08 0.74 202 191 125
-0.14 0.08 0.84 167 85 61
-0.12 -0.06 0.56 198 197 104
-0.13 -0.05 0.51 198 197 104
-0.04 0.08 0.48 121 154 145
-0.14 0.14 0.86 121 154 145
-0.12 -0.16 0.64 136 144 69
-0.16 0.02 0.79 114 145 147
-0.16 0.02 0.79 114 145 147
-0.01 0.03 0.58 114 145 147
-0.10 -0.00 0.69 204 196 111
-0.15 0.19 0.93 123 161 150
-0.09 0.23 0.87 214 211 140
-0.12 -0.18 0.56 216 226 227
-0.12 0.14 0.83 208 203 122
-0.09 0.20 0.87 218 215 162
0.01 -0.00 0.63 109 57 35
-0.08 0.12 0.66 208 200 128
-0.03 0.00 -0.02 116 102 102
-0.09 -0.04 0.60 142 155 145
-0.04 0.03 0.57 161 71 36
-0.03 0.05 0.69 161 71 36
-0.13 0.18 0.89 218 210 138
-0.15 0.25 1.01 218 210 138
-0.17 -0.08 0.51 138 145 75
-0.04 0.12 0.58 212 207 139
-0.12 0.21 0.90 218 213 149
-0.08 0.18 0.69 218 213 149
-0.12 0.18 0.80 216 213 146
-0.13 0.21 0.92 216 213 146
-0.15 0.04 0.65 64 72 59
-0.16 -0.13 0.73 65 66 52
0.01 0.02 0.11 207 196 114
-0.14 -0.06 0.59 196 195 102
-0.02 0.06 0.54 174 84 57
-0.02 0.06 0.54 174 84 57
-0.09 -0.11 0.35 217 223 223
-0.09 0.02 0.74 206 201 120
-0.01 0.08 0.77 206 201 120
-0.12 0.19 0.88 219 212 142
-0.12 0.20 0.90 219 212 142
-0.02 0.03 0.62 94 125 119
-0.08 0.26 0.88 192 206 207
-0.12 0.17 0.91 218 214 151
0.01 0.05 0.53 208 202 116
-0.11 0.00 0.74 208 202 116
0.07 0.07 -0.18 69 76 58
0.02 0.01 0.37 121 61 69
-0.13 0.27 1.01 220 217 140
-0.08 0.02 0.44 214 211 134
-0.12 0.21 0.95 213 211 137
-0.08 0.11 0.62 213 211 137
-0.03 0.00 -0.03 47 39 20
-0.08 0.06 0.70 210 205 114
-0.12 0.25 1.00 216 208 133
-0.12 0.28 1.04 216 208 133
-0.11 0.06 0.79 68 90 88
-0.11 0.06 0.79 68 90 88
-0.11 0.06 0.79 68 90 88
-0.02 0.09 0.45 193 209 206
-0.10 0.01 0.75 211 206 122
-0.10 0.01 0.75 211 206 122
-0.12 0.13 0.89 163 137 136
-0.06 0.06 0.60 163 137 136
-0.10 0.06 0.78 209 206 125
-0.11 0.10 0.83 49 56 38
-0.06 0.18 0.65 49 56 38
-0.11 0.31 1.08 125 143 121
-0.11 0.05 0.68 218 208 123
0.05 -0.03 0.47 83 126 98
-0.04 0.22 0.82 111 107 104
-0.12 0.01 0.71 217 211 133
-0.09 0.54 1.35 87 76 80
0.01 -0.08 0.29 196 206 205
-0.01 -0.10 0.55 102 137 115
-0.11 0.14 0.81 217 213 139
-0.01 0.11 0.71 220 215 131
-0.09 0.05 0.72 214 210 137
-0.03 -0.02 0.39 62 84 71
-0.08 0.54 1.34 101 100 106
-0.09 0.05 0.76 211 206 112
-0.07 0.03 0.68 211 206 112
-0.07 0.70 1.81 81 80 85
-0.08 0.77 1.98 81 80 85
-0.02 -0.03 0.72 215 209 135
-0.07 -0.03 0.66 215 209 135
-0.09 0.02 0.77 79 98 92
-0.09 0.02 0.77 79 98 92
-0.09 0.02 0.77 79 98 92
0.00 0.10 0.69 220 218 143
-0.01 0.17 0.70 108 133 101
-0.12 0.07 0.86 217 212 130
-0.11 0.12 0.90 140 172 161
-0.11 0.12 0.90 140 172 161
-0.09 0.07 0.80 140 172 161
-0.07 0.08 0.62 105 67 64
-0.10 0.29 1.08 223 222 142
-0.05 -0.12 0.58 152 164 80
-0.02 -0.03 0.15 101 136 116
-0.00 -0.03 0.15 101 136 116
-0.12 0.06 0.85 221 217 146
-0.13 -0.03 0.54 149 61 21
-0.05 -0.04 0.22 149 61 21
-0.17 -0.05 0.34 95 95 97
-0.09 0.11 0.85 109 131 129
-0.07 0.08 0.76 109 131 129
-0.09 0.12 0.80 109 131 129
0.05 -0.01 0.55 215 208 128
-0.05 -0.02 0.61 216 211 120
-0.09 0.13 0.84 138 102 88
-0.00 0.19 0.73 27 29 24
0.09 -0.11 0.60 97 50 4
-0.08 0.02 0.61 218 215 144
-0.07 0.08 0.75 213 216 129
0.01 0.13 0.68 226 226 152
0.02 0.01 0.22 213 209 110
-0.09 0.10 0.75 219 213 125
-0.07 0.06 0.67 219 213 125
0.03 0.03 0.48 187 143 134
0.10 -0.06 0.61 167 151 128
0.08 -0.04 0.62 83 93 59
-0.03 0.01 0.58 51 68 60
0.03 -0.03 0.22 100 121 106
0.06 -0.03 0.37 100 121 106
0.00 0.02 0.21 221 215 119
-0.07 0.11 0.71 221 215 119
0.06 -0.02 0.18 19 14 11
0.02 0.07 0.50 189 111 101
0.04 0.08 0.61 218 214 127
-0.01 0.16 0.42 88 92 55
0.08 -0.00 0.15 18 17 15
0.03 0.12 0.74 226 220 122
-0.04 -0.01 0.65 222 220 145
-0.02 0.02 0.63 217 209 124
0.00 0.01 0.56 80 65 70
-0.04 -0.08 0.43 148 154 84
0.04 -0.19 0.60 64 29 9
-0.09 -0.11 0.69 152 153 83
-0.07 0.19 1.11 135 179 166
0.06 0.05 0.50 135 179 166
-0.09 0.03 0.67 219 210 117
0.04 0.09 0.63 222 216 122
-0.04 0.10 0.75 222 216 122
0.04 0.10 0.63 222 216 122
-0.15 -0.08 0.44 80 57 16
-0.08 0.06 0.92 219 217 130
-0.14 -0.15 0.70 109 67 25
0.02 -0.12 0.63 118 116 101
0.06 0.05 0.61 221 215 131
-0.03 0.02 0.67 221 215 131
-0.03 -0.01 -0.24 43 83 170
-0.03 0.50 1.21 4 4 4
0.07 0.01 0.35 159 164 82
-0.03 -0.04 0.70 11 24 129
-0.02 -0.04 0.40 11 24 129
-0.05 0.29 1.01 14 18 21
0.06 0.05 0.10 100 115 94
0.06 0.14 0.52 40 46 44
-0.03 -0.01 -0.28 25 75 172
0.04 0.13 0.66 41 47 43
0.02 0.05 -0.10 125 93 70
0.01 0.04 -0.09 125 93 70
0.02 0.07 -0.16 106 158 119
-0.13 -0.15 0.64 90 63 33
0.01 -0.02 0.64 13 62 164
0.08 0.05 0.53 13 62 164
0.10 -0.04 0.39 115 80 42
0.08 -0.06 0.40 115 80 42
0.07 0.07 0.43 134 123 95
-0.08 -0.05 0.64 146 148 75
-0.07 -0.00 0.60 169 176 98
-0.04 0.21 0.97 187 199 163
0.00 0.31 1.26 223 229 181
-0.02 0.01 0.76 129 150 117
0.10 -0.00 0.26 92 64 25
-0.06 0.09 0.89 174 177 96
0.02 -0.21 0.61 80 50 22
-0.04 -0.04 0.69 152 159 81
-0.04 -0.02 0.67 162 166 90
-0.05 -0.04 0.44 73 86 77
0.04 -0.04 0.47 73 86 77
-0.04 0.03 -0.25 51 41 32
0.10 0.03 0.50 205 205 135
0.10 0.05 0.54 17 12 9
-0.11 -0.18 0.65 95 83 59
-0.05 0.02 0.75 111 138 119
0.13 -0.10 0.59 72 70 58
0.06 0.09 0.26 230 237 193
0.09 -0.08 0.52 53 40 32
0.10 -0.03 0.23 78 78 70
-0.03 -0.07 0.13 78 78 70
-0.08 -0.09 0.77 54 54 46
-0.04 -0.13 0.83 44 46 35
-0.05 -0.03 0.69 58 82 69
-0.04 0.09 0.80 66 34 13
0.33 0.79 2.48 100 80 73
-0.06 -0.19 0.76 77 74 59
-0.07 0.04 0.87 22 23 17
0.12 -0.01 0.47 61 78 68
0.01 -0.09 0.76 61 78 68
0.13 0.00 0.65 202 203 101
-0.10 -0.06 0.54 33 36 25
0.12 -0.01 0.61 99 124 118
0.00 -0.06 0.48 137 141 65
0.04 -0.02 0.70 254 255 251
0.13 -0.04 0.47 190 192 187
-0.01 -0.06 0.66 134 137 58
-0.09 -0.09 0.16 60 63 56
0.09 -0.00 0.35 75 103 89
-0.06 -0.05 0.72 149 135 126
0.03 0.13 0.81 133 140 122
0.03 -0.06 0.57 182 87 19
0.16 -0.15 0.55 148 162 137
-0.06 -0.08 0.63 148 156 143
-0.05 -0.06 0.59 116 120 106
0.05 -0.08 0.55 18 32 19
-0.01 0.07 0.83 250 255 255
0.00 0.08 0.89 79 80 66
0.10 0.10 0.59 78 83 79
0.10 -0.05 0.57 237 238 181
0.05 0.12 0.66 30 32 29
-0.04 -0.07 0.48 126 123 54
0.09 -0.02 0.31 126 123 54
0.01 -0.08 0.65 126 122 49
0.09 0.03 0.25 238 243 185
-0.05 -0.13 0.70 143 157 132
-0.11 -0.09 -0.33 157 169 145
0.13 0.02 0.35 60 71 67
0.03 -0.13 0.49 129 135 109
-0.10 -0.08 0.15 122 132 107
0.00 -0.06 0.79 74 69 37
0.16 -0.01 0.53 209 200 143
0.04 -0.19 0.60 166 172 146
0.09 0.01 0.19 146 155 134
0.17 -0.03 0.57 176 170 108
0.14 -0.05 0.45 87 74 30
0.13 0.51 1.29 118 133 114
0.08 0.38 1.08 118 133 114
0.06 0.05 0.13 169 178 149
-0.02 -0.06 0.12 104 93 39
0.05 0.04 0.08 144 128 77
-0.01 -0.09 0.30 144 128 77
-0.01 -0.21 0.60 183 189 175
0.22 -0.06 0.53 163 170 152
0.02 -0.02 0.77 159 148 84
0.21 -0.05 0.57 159 148 84
0.10 0.04 0.58 144 154 130
0.01 -0.03 0.60 169 161 86
0.27 0.69 1.62 145 160 137
0.18 0.07 0.58 139 156 122
-0.07 -0.20 0.51 182 191 174
-1.45 -1.33 -3.79 176 177 161
0.12 0.06 0.25 249 250 232
-0.10 -0.11 0.54 187 191 176
0.10 0.01 0.34 93 124 82
0.10 0.09 0.23 93 124 82
-0.09 -0.17 0.37 179 187 166
0.07 0.03 0.15 202 179 99
0.02 0.01 0.01 183 190 172
0.13 0.08 0.29 144 157 129
0.07 -0.10 0.35 137 134 91
0.03 -0.09 0.25 132 129 74
0.11 0.31 0.96 130 150 123
0.21 0.08 0.54 130 150 123
0.15 0.01 0.28 146 133 125
2.77 4.28 9.59 152 167 138
0.14 0.07 0.32 123 142 114
-0.13 -0.08 0.02 186 190 175
-0.12 -0.11 0.11 174 183 162
0.53 0.83 2.00 152 167 138
0.06 -0.13 0.77 131 121 111
-0.05 -0.01 -0.09 85 2 20
0.12 0.19 0.98 175 180 157
0.22 -0.01 0.48 170 173 144
0.18 -0.00 0.38 130 125 7
-0.12 -0.09 -0.06 143 29 28
-0.28 -0.02 0.56 111 108 101
-0.33 0.26 0.95 138 125 80
-0.31 0.15 0.98 84 92 95
-0.31 -0.18 0.69 65 60 40
-0.14 0.02 0.73 19 14 8
-0.16 -0.06 0.68 19 14 8
-0.19 0.08 0.79 150 158 85
-0.23 -0.06 0.54 75 56 23
-0.20 -0.10 0.65 75 56 23
-0.23 0.19 0.68 149 134 93
-0.23 0.00 0.68 60 51 46
-0.00 -0.01 0.34 30 17 11
-0.33 0.28 1.10 70 29 11
-0.07 -0.12 0.61 201 217 216
-0.24 0.04 0.61 37 48 40
-0.11 0.01 0.34 37 48 40
-0.25 0.01 0.61 137 136 54
-0.24 0.19 0.90 55 39 24
-0.18 0.09 0.86 144 134 73
-0.26 0.24 0.94 109 95 50
-0.37 0.42 1.21 150 131 91
-0.23 0.01 0.67 156 152 61
0.09 0.02 -0.10 132 117 76
-0.32 0.33 1.12 135 113 76
-0.09 0.06 0.63 147 147 73
-0.23 0.23 0.81 146 128 82
-0.18 0.14 0.87 147 146 64
-0.02 -0.01 0.32 144 148 74
0.01 -0.00 0.03 122 60 37
-0.13 -0.01 0.56 122 60 37
-0.04 -0.01 0.42 147 146 64
-0.20 -0.06 0.70 147 146 64
-0.34 0.37 1.27 140 54 57
-0.19 0.12 0.81 141 139 56
-0.18 -0.05 0.62 117 54 36
-0.19 0.22 0.72 96 87 48
-0.20 0.01 0.70 122 60 37
-0.17 0.04 0.71 147 150 61
1.38 -0.37 -4.72 147 150 61
0.02 0.03 0.27 152 152 66
-0.21 -0.05 0.49 76 90 101
-0.20 0.06 0.80 152 148 61
-0.13 -0.01 0.51 102 53 36
-0.26 -0.05 0.63 16 31 90
-0.14 -0.02 0.61 155 158 67
-0.16 0.12 0.82 146 145 62
-0.14 0.16 0.80 146 145 62
-0.15 -0.07 0.64 164 164 78
-0.21 0.18 0.89 146 144 57
0.04 0.01 -0.04 220 230 232
-0.17 -0.01 0.80 78 91 81
-0.20 0.16 0.88 154 150 76
-0.19 0.22 0.94 139 140 62
-0.21 0.24 0.94 145 142 63
-0.10 0.06 0.73 124 125 127
-0.04 0.06 0.38 150 147 70
-0.18 0.06 0.79 150 147 70
-0.01 -0.05 0.18 214 223 222
-0.12 0.16 0.73 120 64 51
-0.04 0.05 0.61 167 165 78
-0.06 -0.05 0.51 174 172 85
-0.13 0.16 0.82 149 148 81
-0.19 0.08 0.83 162 156 78
-0.15 0.20 0.89 95 66 70
-0.20 0.25 0.99 161 169 83
-0.02 -0.00 0.52 29 51 15
-0.05 0.02 0.76 176 174 73
-0.10 -0.02 0.47 177 177 77
-0.20 -0.04 0.77 180 178 91
-0.08 -0.05 0.71 180 178 91
-0.17 0.05 0.76 153 70 64
-0.15 0.24 0.91 196 192 129
0.01 -0.02 0.47 181 185 90
-0.16 0.03 0.76 179 178 86
-0.10 0.14 0.81 179 172 94
-0.08 0.12 0.74 181 176 95
-0.02 -0.03 0.59 188 185 90
-0.01 0.00 -0.02 188 185 90
-0.15 -0.09 0.70 188 185 90
-0.14 0.05 0.76 166 86 63
-0.12 0.04 0.60 166 86 63
-0.18 -0.11 0.55 99 126 119
-0.06 0.09 0.62 151 60 33
-0.12 -0.02 0.64 189 185 88
-0.11 -0.03 0.63 189 185 88
-0.18 -0.02 0.75 149 151 150
-0.14 -0.03 0.65 149 151 150
-0.03 0.03 0.41 194 189 105
-0.04 0.00 0.17 194 189 105
-0.12 -0.09 0.69 194 191 94
-0.19 -0.06 0.74 194 191 94
-0.00 -0.02 0.60 194 191 94
-0.05 0.10 0.26 143 127 114
-0.14 0.04 0.80 158 75 41
-0.00 0.04 0.61 51 66 43
-0.12 0.23 0.90 213 210 143
-0.15 0.23 0.96 212 206 154
0.05 0.00 0.05 216 226 227
-0.06 0.01 0.57 193 189 100
-0.02 0.03 0.40 201 195 111
-0.08 0.03 0.71 201 195 111
-0.03 0.04 0.38 163 96 77
-0.04 0.12 0.75 163 96 77
0.02 0.02 -0.11 41 53 31
-0.09 0.00 0.04 197 194 97
-0.02 0.02 0.38 169 75 41
-0.02 0.05 0.53 169 75 41
-0.05 0.05 0.34 215 210 119
-0.05 0.05 0.34 215 210 119
-0.08 -0.04 0.66 206 203 108
-0.04 0.11 0.64 211 207 118
-0.14 0.18 0.87 211 207 118
-0.00 -0.02 0.15 201 195 101
-0.13 -0.07 0.66 201 195 101
-0.15 0.34 1.16 219 215 151
-0.12 0.28 0.96 255 255 255
-0.03 0.17 0.54 219 228 227
-0.14 -0.05 0.47 51 70 112
-0.12 -0.14 0.70 79 100 83
-0.13 0.08 0.80 209 199 110
-0.01 0.07 0.69 170 71 16
-0.10 0.04 0.74 170 71 16
-0.16 -0.08 0.52 142 150 77
-0.01 0.01 -0.03 212 206 206
-0.04 -0.04 0.18 79 108 62
0.04 -0.01 0.68 205 200 109
-0.11 0.14 0.86 220 215 133
-0.11 0.05 0.62 120 160 151
-0.12 0.07 0.80 120 160 151
0.00 0.11 0.47 153 177 141
-0.02 0.17 0.53 219 217 132
-0.11 -0.05 0.22 85 98 80
-0.07 -0.10 0.64 152 62 27
-0.01 -0.02 0.73 162 94 81
-0.10 0.01 0.67 216 210 132
-0.12 0.04 0.75 216 210 132
-0.01 0.11 0.72 220 219 136
-0.03 0.14 0.36 219 217 140
-0.01 0.11 0.71 225 220 136
-0.14 -0.17 0.77 142 150 99
-0.04 0.04 0.53 216 211 130
-0.01 -0.02 -0.10 216 211 130
-0.02 -0.06 0.70 213 205 120
-0.06 0.11 0.58 223 218 137
-0.09 0.09 0.80 225 219 143
-0.09 -0.00 0.73 215 208 128
-0.09 0.13 0.87 221 221 147
-0.09 0.28 1.00 164 178 119
0.05 0.03 0.43 209 203 105
-0.04 -0.05 0.74 160 163 108
-0.15 -0.14 0.67 68 31 5
-0.03 -0.16 0.65 158 163 97
-0.20 -0.11 0.59 100 102 99
0.02 0.02 0.43 216 211 120
-0.07 -0.00 0.61 216 211 120
0.08 -0.06 0.64 159 161 86
-0.10 -0.23 0.69 33 34 36
-0.08 0.11 0.80 168 100 99
0.09 -0.12 0.60 96 46 9
-0.16 -0.03 0.58 160 167 99
-0.08 0.22 1.10 222 219 140
-0.08 -0.14 0.80 156 158 83
-0.06 0.09 0.81 221 218 123
-0.01 -0.18 0.59 96 55 9
0.05 0.08 0.38 221 218 139
0.03 0.06 0.46 103 97 73
0.06 0.08 -0.08 130 83 31
0.07 0.09 -0.06 130 83 31
0.01 0.07 0.73 222 218 119
0.09 0.00 0.45 98 95 76
-0.02 -0.03 0.44 20 71 163
0.07 0.04 0.69 219 215 128
-0.12 -0.13 0.76 157 141 125
-0.05 0.03 0.78 166 83 39
-0.01 0.03 0.67 162 79 47
0.06 0.12 0.48 40 29 25
-0.01 0.01 -0.19 127 165 124
0.07 -0.00 0.24 11 11 11
0.04 -0.06 0.66 158 159 81
0.08 0.10 0.69 20 13 7
0.07 -0.00 0.25 10 6 7
-0.01 0.26 1.17 159 131 109
0.03 0.58 1.56 13 17 16
-0.06 -0.03 0.61 150 155 75
-0.05 -0.04 0.71 150 155 75
-0.05 0.01 0.42 219 227 178
0.10 -0.07 0.62 24 13 11
-0.08 0.01 0.84 139 141 68
-0.00 -0.05 0.14 42 42 34
0.05 -0.01 0.67 215 220 156
0.10 -0.01 0.38 50 37 29
0.15 -0.11 0.51 33 30 25
0.12 -0.05 0.46 51 49 37
-0.04 0.04 0.84 100 106 78
-0.05 0.10 0.94 100 106 78
-0.07 -0.04 0.59 127 124 27
-0.05 0.09 0.93 170 172 71
0.11 -0.05 0.43 41 44 37
-0.13 -0.05 0.14 104 107 96
-0.02 0.12 1.05 132 130 56
-0.10 -0.02 0.42 132 130 56
0.07 0.04 0.21 54 87 70
0.02 -0.01 0.09 183 188 181
0.05 0.05 0.16 126 129 98
-0.01 0.10 0.89 97 107 72
-0.02 0.08 0.84 254 255 253
0.02 0.20 1.07 135 137 98
0.02 0.19 1.06 54 108 50
-0.10 -0.06 0.47 88 102 89
-0.05 -0.07 0.25 140 137 58
0.03 0.04 0.60 151 166 137
0.10 -0.00 0.28 12 12 10
0.09 0.08 0.29 140 148 109
0.05 0.12 0.66 31 33 30
0.05 -0.05 0.26 124 134 110
0.01 -0.02 0.07 134 145 128
0.19 -0.14 0.51 161 169 146
0.34 0.56 1.86 162 167 145
0.04 -0.19 0.60 165 174 147
0.16 -0.04 0.45 131 141 117
0.08 0.41 1.09 131 138 107
-0.13 -0.15 0.48 181 183 169
0.04 0.08 0.64 149 159 135
0.01 0.08 0.79 168 174 146
0.13 0.01 0.30 101 100 70
-0.09 -0.18 0.63 179 186 170
-0.00 -0.05 0.57 160 149 83
0.14 -0.06 0.49 160 149 83
0.00 -0.04 0.57 173 165 92
0.00 -0.04 0.57 173 165 92
0.11 0.04 0.26 146 140 90
-1.95 -4.19 -7.73 126 139 119
0.01 -0.03 0.07 80 68 18
0.02 0.04 0.80 184 168 116
-0.23 -0.12 -0.23 184 168 116
0.06 -0.04 0.84 121 106 47
0.09 -0.01 0.30 140 159 127
0.18 0.08 0.49 133 148 125
0.07 -0.10 0.35 135 127 88
-0.10 -0.09 0.20 132 129 74
0.11 0.03 0.20 53 40 21
-0.10 -0.18 -0.13 148 168 141
0.11 0.05 0.24 148 168 141
0.06 0.18 0.74 148 168 141
-0.05 -0.01 -0.09 90 3 20
-0.13 -0.01 -0.16 182 185 176
0.19 -0.01 0.41 34 36 22
0.37 -0.18 -0.75 99 79 29
