ply
format ascii 1.0
element vertex 1531
property float x
property float y
property float z
property uchar red
property uchar green
property uchar blue
end_header
-0.16 -0.18 0.34 155 156 148
-0.21 0.12 0.10 147 150 143
-0.07 0.19 0.16 138 129 112
0.11 -0.11 -0.30 138 129 112
0.13 -0.04 -0.30 123 122 118
-0.36 0.26 0.80 139 132 116
-0.11 0.21 0.14 80 69 49
-0.14 -0.11 0.02 147 140 124
0.10 0.00 -0.17 167 164 147
-0.31 -0.16 0.46 135 126 109
-0.23 -0.00 0.23 187 188 183
0.11 0.05 -0.24 126 115 97
0.13 0.17 -0.44 126 115 97
-0.62 -0.08 1.26 76 67 50
-1.17 -0.49 2.46 164 161 146
0.09 -0.07 -0.27 164 161 146
-0.14 -0.10 -0.04 145 143 131
0.15 0.09 -0.34 116 105 83
0.15 0.02 -0.31 142 137 118
-0.31 -0.30 0.69 63 55 34
0.14 -0.05 -0.36 91 83 60
5.30 2.18 -12.88 64 57 41
-0.02 0.10 -0.04 112 101 73
-1.74 -0.28 3.69 96 85 57
-0.79 0.33 1.59 138 127 105
-0.25 0.08 0.53 131 128 109
-4.12 -1.70 8.75 91 83 60
-3.57 -1.38 8.44 129 121 102
-2.91 -2.02 7.19 103 95 72
-0.85 -0.08 1.65 136 138 117
0.10 -0.09 -0.31 68 69 53
0.15 0.00 -0.33 91 80 58
3.43 0.23 -8.41 118 117 97
-0.58 0.59 1.66 118 117 97
11.94 6.64 -31.14 111 96 75
0.16 -0.06 -0.39 108 109 91
0.16 -0.06 -0.39 108 109 91
-0.04 -0.18 0.11 82 81 77
0.16 0.09 -0.40 90 78 52
-0.10 -0.02 0.21 116 109 91
-0.83 0.45 2.24 158 157 136
0.16 -0.11 -0.34 170 158 136
-0.20 0.28 0.47 115 113 92
-0.05 0.01 0.09 185 177 158
0.15 0.15 -0.50 50 38 12
-0.04 -0.07 -0.04 164 153 131
0.06 -0.07 -0.18 164 153 131
0.05 0.15 -0.34 113 101 75
-0.33 -0.09 0.80 125 120 90
0.10 0.07 -0.22 126 132 120
0.04 -0.11 -0.32 122 115 96
-0.19 -0.16 0.47 121 114 95
0.16 0.10 -0.41 121 114 95
14.44 10.60 -35.83 136 127 110
-0.16 -0.20 0.43 109 106 89
0.03 -0.09 -0.21 98 93 64
14.31 8.82 -36.11 162 150 134
-0.02 -0.10 -0.10 33 24 17
14.17 2.78 -36.03 33 24 17
14.51 2.42 -36.87 122 117 98
13.53 8.76 -34.66 55 39 24
157.19 -118.31 -401.21 199 191 172
15.97 -1.83 -41.28 184 177 149
13.22 10.11 -34.24 49 42 26
13.12 7.91 -34.61 74 58 43
13.12 7.91 -34.61 74 58 43
12.28 3.64 -32.48 132 122 95
0.31 0.04 -1.69 132 122 95
-14.41 6.02 37.61 173 171 150
-4.87 3.98 14.10 178 171 152
-0.25 -0.05 0.18 187 180 161
0.16 0.03 -0.39 187 180 161
-0.03 0.17 -0.24 130 133 122
-0.14 -0.01 0.38 166 165 145
2.88 2.21 -9.02 152 147 125
83.06 -62.55 -225.59 142 134 113
0.06 -0.04 -0.16 173 167 153
0.71 0.26 -2.58 130 122 99
0.11 -0.03 -0.31 130 122 99
11.48 7.94 -32.11 63 44 29
15.47 -3.93 -43.24 110 99 77
-3.06 -0.50 9.13 167 166 148
0.67 0.33 -2.54 117 108 91
0.52 0.04 -2.18 119 111 90
0.04 -0.02 -0.12 126 119 91
4.08 4.39 -11.80 100 105 101
4.08 4.39 -11.80 100 105 101
-0.55 -0.81 1.87 123 121 100
-1.78 -2.12 5.58 176 177 163
-0.02 -0.04 -0.02 181 175 153
3.13 0.68 -9.68 160 149 121
-0.05 -0.06 0.05 160 149 121
0.14 0.04 -0.48 196 187 180
9.05 7.18 -27.44 64 47 31
-0.10 -0.13 0.34 64 47 31
-0.09 -0.16 0.30 59 42 26
-2.52 -1.75 7.55 59 42 26
9.24 5.93 -28.14 150 147 130
-0.76 0.34 2.03 183 181 158
-0.06 0.23 0.34 183 181 158
-0.67 0.50 1.73 128 117 97
13.29 -3.23 -41.47 163 157 133
-0.09 0.10 -0.10 130 127 110
-0.16 -0.07 0.23 178 178 152
-0.01 0.11 0.12 190 188 163
-0.46 0.89 2.20 178 171 152
9.03 5.01 -29.06 158 155 136
-1214.71 1254.70 3880.56 146 139 120
-0.16 -0.07 -0.15 110 103 85
-0.10 -0.01 0.19 164 161 142
0.08 0.11 -0.30 164 161 142
-0.05 0.15 -0.37 64 48 32
0.11 -0.00 -0.29 185 184 164
31.52 22.64 -108.21 63 64 50
0.09 0.07 -0.56 157 156 136
16.59 -8.34 -55.68 186 184 163
0.08 -0.02 -0.30 64 65 51
-0.01 -0.08 -0.76 179 178 157
0.21 0.15 -1.60 55 38 22
0.76 -0.32 -4.18 146 138 117
0.09 0.04 -0.30 146 138 117
0.03 0.06 -0.14 146 138 117
-0.35 -0.02 1.26 148 137 115
6.83 0.83 -24.78 106 95 73
-0.11 -0.09 0.27 106 95 73
-0.00 0.17 -0.56 76 57 42
0.12 0.05 -0.44 131 120 98
6.02 4.02 -22.49 173 156 140
6.02 4.02 -22.49 173 156 140
6.20 4.74 -23.22 152 135 119
6.05 4.34 -22.68 176 159 143
0.06 0.06 -1.05 153 142 120
5.52 4.14 -21.34 55 38 22
5.52 4.14 -21.34 55 38 22
0.10 0.08 -0.61 142 134 111
0.10 -0.03 -0.39 142 134 111
0.08 0.16 -0.47 62 45 27
2.24 1.89 -8.72 62 45 27
0.10 0.04 -0.55 141 129 107
0.06 -0.00 -1.08 153 139 112
0.10 0.15 -0.56 103 84 67
4.99 3.69 -21.00 103 84 67
0.02 0.08 -0.20 147 132 113
0.07 -0.03 -1.37 175 169 147
4.50 3.83 -19.36 59 38 19
2.58 4.09 -10.97 54 52 39
-0.01 0.17 -0.60 116 105 83
3.91 6.38 -17.46 71 69 54
5.09 7.32 -22.57 119 108 88
0.05 0.09 -0.24 140 128 106
0.05 0.14 -0.34 163 156 138
0.06 0.18 -0.51 52 31 14
4.31 5.10 -19.82 52 31 14
-0.30 0.07 1.60 191 186 166
4.93 7.60 -23.63 156 145 125
-0.03 0.13 -0.37 61 50 28
0.07 0.16 -0.51 61 50 28
3.90 5.16 -19.31 54 41 22
-0.35 0.95 2.43 147 133 106
-0.59 1.09 3.07 147 133 106
0.04 -0.05 -0.49 144 138 116
12.01 -7.29 -61.29 146 135 113
-0.02 3.66 9.75 169 155 128
-0.32 0.94 2.35 172 158 132
0.04 0.84 1.80 172 158 132
-31.79 54.80 162.92 124 110 83
0.68 0.47 -3.87 197 199 178
41.49 -56.99 -221.11 173 165 142
4.68 2.66 -26.87 165 163 138
0.04 0.04 -0.15 163 155 132
0.03 -0.04 -0.20 178 167 145
-0.01 0.01 0.04 190 179 157
-0.22 0.08 0.36 128 112 86
0.08 0.08 -0.53 104 107 96
-0.01 0.23 -0.96 104 107 96
-14.73 33.75 106.20 125 114 86
9.61 -8.64 -70.91 143 141 120
0.09 -0.11 -0.44 183 169 142
0.08 0.12 -0.51 75 71 46
5.79 -1.76 -43.52 199 198 177
2.43 -3.66 -14.05 150 140 115
0.21 0.33 -1.99 170 167 148
-0.10 -0.07 -0.29 160 150 123
-0.02 0.07 -0.72 169 166 147
0.02 -0.03 -0.00 100 88 48
0.07 0.08 -0.50 69 67 42
5.97 0.18 -49.23 203 199 170
5.97 0.18 -49.23 203 199 170
0.36 1.84 -5.44 190 189 168
0.12 0.17 -1.59 85 89 74
-0.04 -0.04 -0.55 193 185 162
0.04 0.06 -1.73 145 148 129
0.07 0.11 -0.51 104 103 82
0.93 2.40 -8.19 104 103 82
-0.02 0.08 -0.19 211 214 195
0.94 2.64 -8.35 82 77 48
0.33 0.32 -3.49 240 243 222
-30.43 44.13 174.99 124 110 81
0.03 0.28 -1.28 59 58 38
3.74 3.99 -37.63 194 192 167
-0.13 0.51 2.78 64 57 29
13.32 -18.84 -132.93 64 57 29
0.08 -0.03 -0.36 127 120 92
3.90 1.01 -40.65 100 86 59
-140.27 335.10 1431.81 100 89 67
-0.14 0.10 0.46 208 201 173
0.01 0.00 -0.05 81 64 44
-22.25 71.36 248.94 208 202 178
-0.02 0.08 -1.28 195 193 172
2.86 0.77 -35.10 56 42 15
-0.06 -0.02 -0.78 163 162 142
-0.03 0.24 -1.09 197 191 169
0.44 1.70 -4.86 86 83 66
0.02 0.10 -0.62 86 83 66
-0.05 0.17 -0.40 71 72 54
0.12 -0.10 -1.73 155 143 117
0.64 2.80 -8.36 142 140 119
0.64 2.80 -8.36 142 140 119
0.02 0.11 -0.59 199 203 186
4.33 -3.94 -66.10 91 72 40
4.00 -4.95 -60.86 167 171 146
4.00 -4.95 -60.86 167 171 146
-0.05 -0.03 -0.33 133 117 84
-0.34 0.39 7.08 133 117 84
-11.60 48.29 184.27 120 113 94
0.07 -0.04 -0.43 197 186 158
-2.75 -9.90 -28.78 118 104 77
3.27 12.94 -59.45 218 225 217
3.09 -3.78 -59.24 80 61 29
-0.02 -0.08 -0.26 115 101 75
0.48 2.80 -8.16 77 76 58
-0.06 0.08 -0.94 216 216 190
0.10 0.38 -1.72 161 165 148
0.04 -7.93 -34.65 189 187 166
-2.67 22.17 68.03 206 192 165
-2.67 22.17 68.03 206 192 165
-2.86 24.54 81.40 96 84 60
-0.12 -0.07 -0.40 96 84 60
-23.14 118.86 677.36 66 59 33
0.32 -0.94 -3.15 184 173 153
2.10 21.20 -81.70 137 141 124
5.30 29.98 -209.34 178 183 163
0.04 -0.02 -0.39 175 165 138
-0.08 0.04 -2.16 150 148 125
-0.07 0.03 -0.99 103 91 65
-2.28 25.01 84.31 181 170 148
0.07 0.07 0.02 120 109 89
0.07 0.02 -0.25 120 109 89
0.00 0.04 -0.58 111 104 76
-0.05 0.05 -0.77 90 83 55
-0.00 -0.08 0.28 165 173 158
0.02 0.01 -1.47 202 195 169
1.36 -7.07 -142.04 177 167 140
-0.06 0.04 -0.92 177 167 140
0.02 -0.04 -0.62 191 193 171
-0.78 27.02 99.91 104 94 67
0.92 42.46 -160.34 206 205 184
-0.10 -0.02 -0.12 188 182 160
-0.12 -0.07 -0.40 154 142 116
0.07 -0.01 -0.34 118 106 84
-0.08 26.66 -97.29 182 184 162
0.10 1.01 -3.29 137 138 120
-0.09 0.18 -0.98 116 118 96
0.09 0.80 3.05 199 198 177
-0.19 1.98 -38.65 161 155 133
-0.11 -0.06 -0.57 191 189 168
0.63 1.36 4.20 212 202 177
1.26 24.88 82.73 183 175 152
7.20 -76.73 362.12 88 78 53
1.63 20.35 61.79 204 197 178
0.08 0.25 3.50 159 152 124
0.05 0.07 0.17 99 91 68
-0.09 0.13 -1.19 89 87 62
-0.10 0.19 -1.12 199 197 176
1.33 0.92 33.08 177 177 151
0.12 0.27 4.30 154 147 119
-0.01 -0.02 -0.58 201 195 173
2.63 21.03 59.69 113 105 82
-0.11 0.20 -0.95 219 218 197
1.04 3.79 10.02 201 193 170
0.07 -0.44 1.40 218 221 202
-12.04 76.31 -221.51 160 163 144
2.79 16.88 49.68 180 172 149
0.05 0.03 0.71 155 148 120
-0.10 -0.02 -1.08 115 99 84
12.30 16.58 106.18 150 158 135
0.76 1.92 9.60 177 181 166
27.29 -111.79 439.08 114 114 88
-0.04 0.01 -0.60 162 166 143
3.36 17.47 53.99 110 98 72
-0.03 0.09 -0.43 187 183 156
49.16 -165.80 677.69 115 115 89
-0.03 -0.41 -2.09 188 187 167
2.27 -8.54 24.73 107 101 79
-0.12 0.23 -1.02 107 101 79
6.10 20.76 69.90 113 111 86
-0.14 -0.11 -0.42 123 115 96
-0.39 2.12 -5.82 181 180 160
11.24 28.73 100.67 209 199 172
9.07 -3.54 75.54 169 173 156
-15.06 26.03 -126.03 149 143 119
-0.15 0.14 -0.91 149 143 119
-0.15 0.04 -1.24 70 65 43
12.64 -14.77 97.37 210 209 188
-0.14 0.08 -0.94 46 44 21
-0.15 0.05 -0.95 170 164 142
-0.28 -0.20 -1.38 200 191 162
6.00 6.81 44.97 179 171 148
6.00 6.81 44.97 179 171 148
5.24 -6.40 38.28 189 192 171
-0.04 -0.04 -0.14 186 177 148
-0.63 -0.60 -2.65 186 177 148
-0.15 0.17 -0.65 126 123 104
-0.16 0.20 -0.97 126 123 104
-0.16 0.04 -0.99 207 205 180
-0.15 0.03 -0.84 207 205 180
-0.17 0.09 -1.07 176 178 157
5.60 -2.80 35.58 176 178 157
-0.09 0.16 -0.67 168 160 137
-0.15 0.17 -0.77 168 160 137
-0.11 0.02 -0.25 141 134 106
-0.16 0.09 -0.99 177 175 154
-0.11 -0.01 -0.79 185 175 150
-0.19 -0.10 -0.86 157 142 111
0.99 2.77 7.97 157 142 111
-0.18 0.10 -1.10 160 163 136
-0.18 -0.03 -0.76 161 153 130
0.22 0.52 1.52 181 166 135
-0.18 0.14 -1.11 161 159 136
-0.17 0.06 -0.99 104 102 77
-0.18 0.14 -0.97 82 70 44
-0.16 0.05 -0.80 113 107 83
-0.18 0.07 -0.92 113 107 83
-0.08 0.02 -0.11 188 182 158
-14.25 10.82 -71.52 98 90 67
-0.30 -0.93 -3.31 183 168 147
-0.36 0.36 -1.60 169 163 141
-93.91 10.22 -462.36 102 100 75
-0.18 0.09 -0.89 94 92 67
-0.19 0.10 -0.91 94 92 67
-0.30 -0.12 -1.70 164 158 132
-0.12 0.18 -0.79 187 181 157
-0.19 -0.01 -1.01 187 185 164
8.37 12.77 39.04 196 182 153
-0.44 -0.21 -2.51 141 135 113
-0.29 0.12 -1.32 106 104 79
-0.64 1.30 -3.99 103 91 65
-260.46 30.65 -1168.27 184 182 161
-0.31 0.12 -1.41 116 108 85
-0.19 0.07 -0.98 189 184 164
13.97 12.58 61.96 94 79 46
-0.22 -0.06 -0.74 121 106 73
-0.22 0.08 -1.09 105 97 74
-0.21 -0.06 -0.69 173 162 132
-0.21 -0.09 -0.59 183 168 137
-1.49 -1.49 -5.16 183 168 137
16.27 12.73 66.81 221 215 193
-0.21 -0.13 -1.00 161 142 110
0.94 0.81 2.58 168 152 126
-0.19 0.14 -0.62 161 162 144
-0.29 0.52 -1.67 88 77 59
-0.21 -0.08 -0.60 131 120 90
-0.27 -0.12 -1.45 183 181 158
75.72 31.85 292.77 187 183 158
-13.97 11.24 -52.17 187 181 157
-13.97 11.24 -52.17 187 181 157
25.87 0.68 95.20 180 178 153
-19.48 26.39 -69.11 92 81 61
-0.20 -0.11 -0.49 176 154 117
20.45 19.30 72.50 207 195 169
-0.27 -0.21 -1.43 207 195 169
-0.21 0.12 -0.77 205 205 179
1.01 -0.69 3.61 174 166 143
-0.25 -0.06 -1.12 193 191 166
-1.20 -0.48 -3.67 193 191 166
-1.14 -0.70 -4.12 193 191 166
-0.12 0.03 -0.28 75 62 43
-12.86 16.12 -42.27 75 62 43
1.26 2.17 6.43 146 121 90
-0.64 -0.22 -2.15 203 204 186
87.29 32.20 282.64 141 134 106
-0.07 0.09 -0.24 123 111 89
-0.34 0.03 -1.26 158 157 136
-12.98 2.93 -40.78 195 194 173
-0.24 0.10 -0.84 195 194 173
-0.24 -0.05 -0.75 141 130 102
21.88 21.13 66.61 141 130 102
-1.40 0.20 -4.12 139 133 109
-0.22 0.06 -0.67 139 133 109
-18.17 7.43 -53.33 136 128 105
-0.24 0.07 -0.71 148 142 120
2.53 -1.38 7.44 140 132 109
-2.75 -1.86 -7.40 178 169 140
-0.24 0.14 -0.73 176 174 153
-0.38 0.07 -1.27 171 163 142
-1.72 0.72 -4.87 162 155 127
-1.72 0.72 -4.87 162 155 127
-0.25 -0.05 -0.60 141 139 116
-0.31 -0.10 -1.20 141 139 116
-0.39 0.28 -1.41 166 164 143
-0.23 0.03 -0.64 128 127 106
-0.20 -0.00 -0.51 128 127 106
-0.13 0.00 -0.40 177 176 155
-0.27 -0.06 -0.57 197 183 154
-0.27 0.07 -0.69 109 102 76
-0.29 0.13 -1.01 109 102 76
-0.28 -0.09 -0.55 166 149 123
-0.16 0.14 -0.42 129 121 100
-1.66 1.41 -4.25 105 97 76
-0.30 0.20 -1.03 163 155 134
-0.26 0.07 -0.65 164 157 129
-22.79 -1.18 -57.22 192 189 170
-22.79 -1.18 -57.22 192 189 170
32.35 26.77 80.63 177 165 139
-0.29 -0.05 -0.74 195 183 157
-0.26 0.10 -0.73 101 93 72
27.97 22.95 68.42 190 178 152
-0.24 -0.03 -0.46 208 188 163
-9.34 5.02 -22.87 94 79 58
-0.23 0.13 -0.61 170 163 135
-10.64 7.21 -25.90 96 88 67
-0.17 0.12 -0.47 107 97 70
5.48 4.07 13.16 194 180 153
-0.25 0.05 -0.68 129 115 88
-181.47 -76.70 -432.33 148 147 127
-2.67 -0.40 -6.13 148 147 127
-0.20 0.22 -0.79 103 92 74
0.37 -0.25 0.80 103 92 74
49.99 34.78 117.71 195 189 167
-0.28 0.21 -0.60 94 83 65
-0.94 0.60 -2.34 100 86 60
-0.27 0.07 -0.73 187 186 166
-34.14 -5.32 -79.10 187 186 166
-34.14 -5.32 -79.10 187 186 166
-0.26 0.12 -0.65 84 72 56
-33.78 -3.58 -76.32 172 166 144
-0.29 -0.03 -0.58 186 174 148
-2.48 -1.08 -5.91 134 132 111
167.40 61.01 376.42 134 132 111
-38.79 -8.93 -86.10 191 197 185
-66.15 -16.34 -145.03 153 154 136
-15.04 10.96 -32.62 79 73 59
-0.21 0.16 -0.47 79 73 59
-29.42 -1.84 -63.82 175 172 153
-29.42 -1.84 -63.82 175 172 153
-0.23 0.12 -0.75 165 151 125
-0.30 -0.01 -0.63 146 145 125
-0.28 0.21 -0.57 72 63 48
1.32 0.75 2.57 134 122 96
-0.27 0.02 -0.60 132 128 101
0.56 0.21 1.12 132 128 101
-1.07 -0.22 -2.83 178 176 161
-0.16 0.12 -0.40 154 147 128
-11.17 4.19 -23.11 111 103 84
114.90 79.89 235.14 134 124 97
2.13 1.10 3.91 134 124 97
-0.23 0.08 -0.72 136 133 116
-20.90 1.76 -42.60 136 133 116
-1.32 -0.06 -3.08 136 133 116
-0.13 0.14 -0.41 167 160 141
-0.38 0.17 -1.06 167 160 141
-0.25 0.13 -0.65 163 156 138
-0.27 0.11 -0.64 184 181 164
-0.22 -0.12 -0.38 148 136 120
-0.16 -0.03 0.24 130 123 107
-0.11 -0.13 -0.18 134 127 111
-0.51 0.10 1.04 74 63 45
0.15 0.12 -0.35 74 63 45
0.12 -0.01 -0.24 127 120 104
0.18 0.11 -0.45 127 120 104
-0.29 -0.13 0.57 96 85 55
-1.09 0.34 2.47 113 105 86
-0.19 -0.31 0.46 159 159 147
-0.03 -0.08 -0.06 172 171 151
0.01 -0.11 -0.21 171 163 150
0.05 0.07 -0.13 146 147 131
-0.91 -0.09 1.81 137 138 120
-0.07 -0.06 0.05 137 138 120
-0.04 0.05 0.07 93 79 53
0.16 0.06 -0.34 92 78 52
-0.05 0.13 0.15 174 173 153
0.15 0.07 -0.35 129 127 112
-1.71 0.54 4.04 116 115 95
0.16 0.20 -0.46 110 107 90
5.15 1.17 -13.07 159 156 137
-0.03 -0.03 0.03 143 132 110
-0.14 -0.11 -0.13 191 188 169
-0.80 0.18 2.01 85 74 52
0.03 0.12 -0.47 100 98 77
0.11 0.06 -0.27 100 98 77
-0.98 -0.96 2.55 141 140 122
0.14 0.08 -0.34 140 137 120
14.95 8.79 -36.90 104 97 79
-2.82 0.57 6.46 165 164 143
18.84 -1.94 -46.79 151 143 124
0.15 0.10 -0.34 45 51 41
8.52 1.62 -21.77 111 97 70
14.31 2.16 -36.96 78 75 58
12.33 7.57 -31.91 59 43 28
-0.07 0.15 -0.20 147 145 130
12.90 6.43 -33.50 152 149 130
-0.64 0.40 1.96 142 136 112
14.34 9.19 -37.66 160 148 132
14.34 9.19 -37.66 160 148 132
4.07 3.05 -12.19 140 139 111
10.59 3.43 -27.95 108 98 71
11.25 2.97 -29.68 133 125 102
19.13 -6.48 -50.14 108 102 80
11.61 5.80 -31.21 135 132 113
0.05 -0.02 -0.12 162 155 137
12.47 3.16 -33.65 111 103 80
12.01 8.87 -33.21 140 131 114
-108.65 98.73 299.70 138 130 111
2.12 1.04 -6.78 158 159 145
0.05 0.13 -0.33 160 153 125
0.01 0.11 -0.11 152 144 121
0.14 0.03 -0.44 122 115 87
11.23 8.34 -31.79 55 38 22
-0.96 1.04 2.90 177 174 155
0.10 0.13 -0.39 153 152 134
-0.03 -0.16 -0.70 189 180 171
-0.06 -0.03 0.03 189 180 171
0.02 0.11 -0.18 167 164 149
17.44 -4.57 -50.95 120 119 98
-0.07 0.11 0.00 146 143 124
9.79 7.46 -28.95 161 144 128
-0.06 0.17 0.24 148 149 131
0.12 0.05 -0.36 183 185 164
22.22 -13.83 -67.54 185 184 163
22.22 -13.83 -67.54 185 184 163
-0.72 0.02 2.11 164 164 138
9.47 5.80 -29.87 131 124 105
17.69 -11.24 -55.52 156 155 135
0.01 0.12 -0.43 144 134 107
8.34 6.77 -26.85 173 156 140
12.84 -3.47 -41.66 196 190 166
-0.02 -0.07 0.06 158 151 132
9.95 0.25 -32.94 145 137 116
0.00 0.12 -0.04 170 172 151
0.12 0.05 -0.53 120 112 91
8.00 9.49 -26.43 166 167 153
0.19 0.08 -1.48 171 163 140
0.05 0.13 -0.29 71 52 37
1.49 0.46 -5.03 34 27 11
-8.41 -3.13 28.39 34 27 11
7.78 2.99 -26.32 145 143 120
7.47 6.64 -25.63 136 119 103
7.47 6.64 -25.63 136 119 103
-13.69 -10.13 49.53 146 137 120
0.09 -0.01 -0.36 153 150 131
1.49 0.75 -5.24 153 150 131
6.86 7.94 -24.08 166 163 146
1.41 0.66 -5.27 162 155 136
1.41 0.66 -5.27 162 155 136
-0.31 1.01 2.10 162 155 137
-0.12 -0.11 -0.31 162 155 137
-0.23 -0.14 0.52 186 175 153
0.65 0.51 -2.96 133 131 110
6.33 3.03 -23.83 150 137 118
6.30 2.50 -23.84 164 163 145
6.08 6.06 -23.16 149 136 117
0.21 0.06 -1.53 166 158 135
3.15 2.68 -12.69 50 33 17
5.77 4.02 -22.28 50 33 17
5.69 4.54 -22.57 132 124 103
5.69 4.54 -22.57 132 124 103
0.88 0.81 -3.53 158 147 127
-0.02 0.20 -0.54 115 104 86
-0.75 -0.47 3.12 142 131 109
0.08 -0.00 -0.30 172 158 131
0.03 -0.01 -0.92 172 158 131
0.07 0.09 -0.58 162 152 127
0.09 -0.07 -0.51 162 152 127
-0.02 0.02 0.08 138 130 109
0.05 0.17 -0.45 130 118 96
4.00 3.01 -18.29 111 99 77
8.30 -0.64 -38.16 176 170 146
0.06 -0.03 -0.25 134 120 93
0.66 -0.30 -3.46 149 139 112
0.04 0.02 -0.71 141 130 102
0.11 0.02 -0.44 141 130 102
9.63 15.83 -45.97 158 155 136
14.36 -9.15 -69.16 147 135 109
-0.00 -0.08 -0.01 93 79 52
3.80 4.29 -18.49 93 79 52
4.42 1.65 -22.31 128 130 109
1.00 1.61 -4.79 167 168 154
3.62 4.89 -18.62 149 136 117
-0.04 -0.04 0.21 143 129 102
3.19 2.39 -16.75 154 146 127
0.03 -0.01 -0.21 179 177 152
3.13 3.58 -17.56 154 143 123
0.01 -0.08 0.09 64 67 58
4.62 1.97 -26.69 193 192 172
-0.02 -0.07 -0.18 153 142 120
-80.26 124.58 466.04 133 125 104
0.16 -0.36 -2.78 191 189 164
0.03 0.17 -0.64 146 138 117
0.18 -0.24 -2.57 151 151 127
-0.10 -0.15 -0.70 177 161 136
2.86 -5.12 -15.99 177 161 136
-0.44 -0.84 2.84 98 86 48
6.10 -2.52 -45.68 205 205 179
8.11 -4.70 -62.09 200 198 173
-0.06 0.13 -0.54 167 165 144
1.12 3.02 -8.91 48 47 27
-0.03 -0.00 -0.68 142 144 122
-0.07 -0.10 -0.24 157 141 115
10.52 -9.88 -95.97 148 146 121
-13.48 37.38 121.44 116 104 78
-13.48 37.38 121.44 116 104 78
3.19 2.89 -30.12 97 95 70
3.19 2.89 -30.12 97 95 70
3.57 5.25 -35.86 190 190 166
-29.08 71.99 286.83 118 107 85
-29.08 71.99 286.83 118 107 85
-0.02 -0.04 0.01 230 228 207
3.29 3.49 -35.47 81 79 58
0.00 -0.01 -0.77 131 120 98
13.53 -21.69 -148.42 179 172 144
0.03 0.22 -0.52 54 55 49
-0.03 0.13 -0.56 85 83 58
-10.97 39.06 136.57 128 122 100
0.02 0.01 -0.67 116 111 82
6.82 -4.83 -92.76 151 143 107
3.79 -2.00 -53.38 93 77 44
0.65 2.94 -8.51 73 72 52
0.35 3.92 -11.08 93 91 70
-5.30 25.79 84.29 160 149 121
0.07 0.34 -1.77 157 162 142
-0.06 0.39 1.20 127 111 85
-2.59 10.05 32.30 127 111 85
0.01 0.24 -1.33 181 184 163
-0.07 0.19 -0.81 181 184 163
0.03 0.15 -0.52 199 201 179
-0.06 0.14 -1.03 106 100 76
0.03 0.12 -0.61 106 100 76
0.01 0.10 -0.44 106 100 76
-102.34 396.33 2272.76 175 165 138
-0.02 0.11 -0.72 191 191 165
0.01 0.37 -1.59 102 101 83
0.10 -0.19 -1.75 181 174 155
-0.03 0.06 -0.72 147 154 136
4.58 3.90 -173.41 179 177 152
-4.59 34.54 161.30 114 109 90
15.57 -63.74 -779.53 127 122 100
15.57 -63.74 -779.53 127 122 100
-1.46 30.47 109.56 156 144 118
-0.38 8.37 30.06 156 144 118
0.68 16.43 -74.57 133 128 109
-0.08 0.17 -0.98 169 167 142
-0.35 24.66 87.22 206 196 169
-0.27 45.58 334.98 124 118 94
-0.26 17.92 -69.94 125 123 98
-0.63 -1.41 -81.81 188 186 161
0.80 16.74 70.39 189 188 167
1.24 20.14 80.49 105 99 77
1.24 20.14 80.49 105 99 77
-2.03 16.28 -80.38 116 111 91
1.69 22.23 72.69 126 118 95
-0.05 0.28 -1.46 177 173 148
0.07 0.04 -0.10 197 189 166
-3.29 3.99 -78.21 178 177 156
-0.03 0.12 0.82 161 163 142
-0.45 -0.62 -8.37 122 115 86
-8.16 -18.84 -52.69 133 125 104
-0.72 -0.98 -4.44 183 181 156
-0.08 -0.87 -3.91 183 181 156
0.01 -0.02 -0.51 137 131 109
3.27 6.86 46.63 171 173 152
3.55 17.58 50.73 200 192 169
0.02 -0.08 -0.33 113 102 80
7.01 20.27 75.95 217 210 184
6.41 16.58 63.29 173 162 134
-11.32 37.19 -110.86 57 55 30
12.19 18.43 113.49 84 78 54
5.45 15.84 49.65 189 178 150
6.26 10.61 52.15 196 195 174
6.92 16.58 57.57 109 99 72
-0.29 0.45 -2.40 53 42 20
-1.33 -1.46 -5.49 131 115 89
-1.33 -1.46 -5.49 131 115 89
5.50 15.17 43.38 124 112 86
10.11 -13.82 76.12 175 164 144
-0.19 -0.09 -0.67 197 183 157
-0.20 -0.15 -0.65 110 93 67
-57.15 84.28 -406.06 152 146 122
-0.13 -0.01 -0.69 179 174 152
20.75 -25.21 139.03 88 72 47
16.90 20.77 114.08 67 60 32
-10.47 18.75 -69.51 102 91 69
7.43 16.81 49.41 109 99 72
13.98 13.08 90.79 168 156 130
-0.15 0.11 -0.84 165 163 138
0.05 -0.04 -0.22 200 186 160
-0.19 0.02 -1.24 148 142 118
-0.67 -0.44 -2.77 179 170 141
-0.16 -0.56 -2.13 202 189 172
-0.12 0.04 -0.77 167 169 148
-13.65 -1.11 -75.72 112 102 75
-0.74 -0.59 -2.80 153 145 122
-0.60 -0.43 -2.33 153 145 122
-0.19 0.02 -1.18 187 185 160
-0.22 0.05 -1.12 187 185 160
-0.18 0.06 -1.03 117 119 98
-0.18 0.06 -1.04 117 119 98
-0.27 0.61 -1.98 106 98 75
10.66 1.32 53.46 181 173 150
23.31 13.84 117.49 153 152 132
14.64 19.06 72.81 173 164 135
0.01 -0.04 0.10 188 183 163
14.40 3.41 70.21 171 163 140
-0.17 0.21 -0.67 114 104 77
-0.10 0.06 -0.33 167 160 141
31.04 -3.17 146.46 171 169 144
-0.35 0.52 -2.00 164 161 142
-16.02 10.99 -70.50 100 88 62
-0.20 0.10 -0.88 154 152 127
-0.22 -0.09 -0.63 135 118 88
75.29 33.14 321.40 170 164 142
-4.46 3.18 -18.27 181 173 150
61.73 10.18 252.44 174 168 144
11.41 16.45 45.66 114 98 72
0.17 0.33 1.05 165 150 117
4.79 5.57 18.72 165 150 117
-0.16 0.09 -0.61 130 124 100
-0.19 0.13 -0.77 190 184 162
-0.22 0.10 -0.87 190 184 162
-0.51 -0.08 -1.84 153 152 131
-0.43 -0.02 -1.53 153 152 131
-7.02 5.35 -26.15 139 133 109
-0.17 0.14 -0.81 180 174 152
1.32 1.10 3.40 141 124 98
27.64 19.69 98.89 179 173 149
27.64 19.69 98.89 179 173 149
-0.24 0.17 -0.74 150 143 124
-0.11 0.10 -0.29 117 104 85
-30.32 -3.34 -102.47 181 179 158
-15.13 2.68 -49.64 142 142 118
-1.33 0.27 -4.63 140 139 118
-0.09 0.01 -0.37 140 139 118
-0.35 0.06 -1.26 183 182 161
-56.15 39.17 -182.28 165 155 128
-0.24 0.11 -0.82 165 155 128
-0.20 -0.05 -0.63 206 207 189
-0.24 -0.11 -1.00 160 145 114
-0.22 0.12 -0.69 159 148 120
-0.35 -0.11 -1.51 179 172 144
-1.22 1.12 -3.82 94 80 54
-1.14 0.81 -3.32 94 80 54
23.12 24.93 70.97 193 182 150
35.48 26.95 107.21 137 123 94
-0.72 -0.20 -2.08 183 185 164
-0.25 0.02 -0.87 183 185 164
500.44 188.63 1463.67 129 123 99
-0.34 0.34 -1.36 137 133 108
-10.36 6.68 -29.83 89 84 62
-2.12 -0.25 -5.82 184 183 162
-0.24 -0.01 -0.65 222 220 195
-1.10 0.86 -2.85 96 88 67
-9.89 9.20 -25.80 114 106 85
26.55 24.45 69.06 182 171 143
26.55 24.45 69.06 182 171 143
-0.22 -0.01 -0.50 189 188 168
-0.01 -0.04 -0.19 189 188 168
0.27 0.30 0.75 133 115 91
-15.34 7.11 -38.87 172 160 134
-0.26 0.20 -0.60 90 82 63
-0.24 0.00 -0.69 168 171 152
0.44 -0.33 1.04 113 102 80
-2.02 2.04 -5.71 113 102 80
-0.08 -0.13 -0.50 181 173 150
-0.26 -0.03 -0.72 172 166 144
-11.94 9.33 -27.48 99 91 70
-0.96 0.85 -2.97 94 83 61
1773.68 1065.25 4067.43 133 127 105
-0.20 0.03 -0.49 133 127 105
-0.70 0.40 -1.93 169 155 128
-0.26 0.08 -0.69 82 70 46
-67.06 -17.04 -153.51 178 177 159
-1.87 0.41 -4.32 133 127 105
-0.24 0.01 -0.60 151 150 132
0.07 0.03 0.12 151 150 132
-0.43 0.01 -1.29 173 174 156
-0.16 0.14 -0.38 86 83 66
72.21 56.38 155.31 183 172 152
-5.81 3.09 -11.94 72 63 48
1.29 -0.69 2.92 154 147 128
0.08 -0.06 0.18 145 135 108
-0.34 -0.06 -1.03 165 157 134
-73.12 -24.43 -153.80 150 142 119
-18.66 11.58 -39.17 102 95 77
1.39 -1.33 3.32 87 84 69
1.53 1.74 4.03 154 142 126
-0.68 0.05 -1.72 140 137 122
-23.95 -0.48 -49.47 186 184 169
-0.27 0.08 -0.65 186 184 169
-0.14 0.12 -0.31 88 85 70
-11.67 4.28 -23.60 100 92 73
-0.43 -0.48 0.98 61 52 43
-0.42 -0.05 0.71 76 65 47
-0.91 -0.30 1.83 146 144 132
-0.38 0.01 0.50 190 183 167
0.16 0.14 -0.38 174 172 159
-0.70 -0.06 1.28 136 131 112
-0.05 0.20 -0.31 83 76 57
-0.80 -0.49 1.76 159 159 147
0.09 0.12 -0.15 144 141 126
0.04 0.13 -0.13 71 62 45
0.04 0.06 -0.07 118 117 99
-0.04 0.16 -0.00 118 117 99
0.08 -0.07 -0.28 97 86 58
-0.34 0.27 0.81 137 129 110
0.08 -0.04 -0.20 137 129 110
11.18 7.81 -26.62 166 165 147
-0.23 -0.37 0.61 192 192 180
-1.31 0.93 2.87 192 189 172
-0.25 0.08 0.47 167 156 136
0.15 0.04 -0.34 134 126 107
-0.02 -0.05 -0.02 153 152 132
0.16 -0.07 -0.40 153 152 132
-0.07 0.14 -0.15 140 137 120
0.08 -0.11 -0.32 111 110 89
-1.75 -0.94 4.19 126 123 106
0.13 0.13 -0.47 150 149 129
18.63 -7.22 -46.65 117 111 89
-0.45 0.20 1.13 156 150 128
24.61 -11.60 -64.14 174 172 151
-0.43 -0.26 1.04 119 117 102
0.06 0.20 -0.85 152 145 129
7.94 7.93 -20.86 55 59 44
-0.12 0.08 0.02 55 59 44
0.03 0.09 -0.14 55 59 44
22.93 -11.71 -60.30 141 139 118
0.11 0.16 -0.45 153 152 134
16.18 -1.89 -42.92 91 84 58
16.18 -1.89 -42.92 91 84 58
12.76 9.35 -34.27 108 105 86
13.50 0.17 -36.57 157 155 134
12.16 6.28 -34.06 157 154 135
11.50 4.73 -32.44 109 101 80
4.37 4.63 -12.23 39 46 39
11.80 11.65 -33.28 84 72 60
4.03 0.97 -11.59 170 169 149
14.36 0.04 -41.38 151 143 120
0.01 0.19 -0.47 71 52 37
10.23 5.30 -30.09 58 53 34
10.23 5.30 -30.09 58 53 34
10.32 9.35 -30.65 151 148 129
-0.06 0.03 0.18 155 156 138
12.70 -1.90 -38.53 180 174 152
12.70 -1.90 -38.53 180 174 152
11.50 0.55 -35.16 131 121 94
12.44 -1.05 -38.00 183 173 146
0.11 0.08 -0.41 132 121 93
0.10 0.11 -0.45 132 121 93
8.94 7.33 -27.89 152 144 125
8.97 5.11 -28.35 119 112 93
10.16 0.80 -32.13 154 152 131
-1.38 -1.17 4.07 63 64 50
0.01 0.12 -0.06 171 173 152
8.01 7.30 -26.49 142 135 117
0.02 -0.07 -0.20 118 112 90
7.00 5.87 -24.62 142 135 116
-0.29 0.62 1.46 143 140 121
-0.74 0.58 2.15 143 140 121
6.56 4.73 -23.52 81 64 48
6.51 3.98 -23.70 67 48 33
6.51 3.98 -23.70 67 48 33
6.51 3.98 -23.70 67 48 33
6.62 3.80 -24.32 154 147 128
1.41 -0.15 -5.78 184 169 140
6.90 1.33 -25.49 151 140 118
6.63 7.25 -25.10 146 135 115
0.11 0.05 -0.43 67 65 50
-0.08 -0.11 0.32 165 158 140
5.95 1.55 -23.96 160 158 133
4.15 3.55 -17.29 131 112 95
1.02 0.87 -4.25 131 112 95
4.91 4.26 -20.57 80 57 41
12.24 -8.66 -51.17 146 131 102
15.12 -10.90 -63.19 146 131 102
15.12 -10.90 -63.19 146 131 102
70.77 -81.82 -296.85 119 109 82
4.71 3.88 -20.37 63 40 24
4.65 5.70 -20.13 152 140 118
-0.16 0.52 1.13 212 216 201
4.36 4.04 -19.28 136 124 102
-0.14 -0.01 0.10 162 150 124
4.29 4.67 -19.73 153 142 120
-0.02 -0.14 -0.86 163 147 122
-0.45 -0.30 2.14 150 142 123
4.57 1.99 -23.22 192 194 173
5.59 1.61 -28.38 147 141 117
0.08 0.04 -0.51 183 182 161
-0.02 -0.05 -0.11 183 182 161
0.30 0.06 -2.13 182 176 152
0.88 -0.91 -4.53 153 142 120
0.41 0.73 -2.53 94 89 57
-0.01 0.16 -0.35 114 118 103
87.15 -190.06 -586.04 194 184 157
87.15 -190.06 -586.04 194 184 157
-0.09 -0.32 0.80 54 56 34
-2.29 -6.22 16.44 33 36 27
0.01 0.11 -0.68 142 145 126
-0.02 0.09 -0.19 215 217 195
0.00 0.02 -1.29 215 217 195
0.05 0.16 -0.47 126 114 74
0.06 0.06 -0.61 170 169 148
0.05 0.00 -0.37 170 169 148
31.77 -66.94 -252.69 194 186 163
8.18 -9.78 -66.34 119 117 94
1.13 3.04 -8.97 48 47 27
-0.28 0.81 2.46 149 138 110
-0.08 -0.14 -0.43 149 138 110
-1.50 8.55 36.45 174 168 146
0.05 0.08 -0.35 127 126 105
-0.03 -0.08 0.14 135 138 119
6.44 -1.59 -57.42 91 83 60
5.48 -2.15 -50.95 73 65 42
-0.05 -0.08 -0.93 159 151 128
3.17 7.58 -30.12 64 62 41
0.01 0.28 -1.31 114 108 86
3.56 4.99 -39.05 95 93 68
3.56 4.99 -39.05 95 93 68
0.11 0.34 -1.87 86 85 64
-0.79 0.27 7.34 78 77 49
3.77 6.47 -42.05 80 78 53
0.84 3.04 -8.82 71 64 45
0.04 0.00 -0.61 167 156 134
-36.93 113.84 441.35 145 134 112
3.94 6.55 -49.65 182 180 155
2.81 0.33 -35.22 61 47 20
2.48 1.64 -33.16 175 168 140
-6.23 25.62 81.09 127 108 78
-6.23 25.62 81.09 127 108 78
15.01 -40.29 -204.15 178 172 148
15.01 -40.29 -204.15 178 172 148
-43.98 156.23 639.06 202 195 176
-0.09 -0.10 -0.26 137 122 101
3.17 12.65 -51.99 194 199 179
2.68 0.94 -47.13 97 89 66
0.18 0.81 -2.99 52 49 40
-0.06 0.12 -0.31 96 95 77
1.60 1.60 -45.12 150 152 130
-0.06 0.15 -0.73 171 178 160
-1.71 18.92 55.80 126 112 83
0.04 0.30 1.41 161 155 133
-0.02 -0.03 -0.07 122 111 89
-1.62 27.57 104.43 199 188 166
-1.62 27.57 104.43 199 188 166
0.74 12.66 -66.10 159 166 148
1.20 -3.21 -107.62 201 196 174
-0.04 0.11 -0.80 219 226 208
-0.48 19.28 63.49 201 195 173
-0.14 -0.23 -2.30 176 178 157
-0.34 6.49 -57.73 110 99 69
-0.01 0.10 -1.42 179 173 151
0.32 19.41 66.10 145 139 117
0.01 24.84 81.31 210 204 182
0.09 -0.47 -2.60 210 204 182
0.06 1.24 3.97 210 204 182
0.93 18.88 79.57 188 187 166
-1.09 3.58 -49.26 183 181 156
1.72 24.14 88.96 110 98 72
2.51 -12.23 108.24 143 138 109
-2.59 36.33 -109.26 197 200 183
-3.90 35.17 -118.88 121 108 76
0.03 0.17 0.61 179 174 152
2.90 9.80 82.97 123 109 80
-10.35 25.74 -219.10 162 156 132
-2.13 2.85 -44.84 135 128 100
-0.13 -0.05 -0.78 145 144 124
-0.08 0.37 -1.42 181 183 172
-0.35 -0.46 -1.93 180 172 149
0.05 0.01 -0.34 180 172 149
-2.85 0.77 -48.26 165 167 146
-5.77 13.81 -90.21 188 187 166
-0.08 0.15 -1.21 188 187 166
-9.90 21.35 -155.29 128 127 106
-9.90 21.35 -155.29 128 127 106
9.52 -33.13 143.44 160 158 133
-2.58 -3.87 -37.55 123 109 82
3.65 14.80 49.21 191 185 163
1.80 7.28 24.20 191 185 163
6.62 5.53 87.46 104 90 61
-5.26 6.45 -63.90 207 206 188
6.19 8.57 74.81 61 62 46
4.76 12.04 56.90 129 123 99
13.79 -39.51 157.38 87 85 60
-0.72 -1.48 -6.64 183 177 153
6.94 15.96 72.05 183 177 153
-62.07 185.87 -610.27 118 112 90
-62.07 185.87 -610.27 118 112 90
5.32 17.40 49.09 196 186 159
-0.11 0.14 -0.74 79 69 42
-0.10 0.12 -0.86 79 69 42
-96.68 -96.57 -786.50 204 198 174
-96.68 -96.57 -786.50 204 198 174
-0.14 0.24 -1.08 141 135 113
-33.05 35.95 -260.06 130 129 108
-15.92 29.69 -115.57 110 108 87
115.97 -234.24 811.95 91 80 62
-0.16 0.11 -1.02 178 177 156
6.10 4.60 40.38 195 188 160
15.36 5.22 94.27 139 133 111
-17.23 30.90 -105.31 94 86 65
-16.20 25.38 -98.60 102 94 71
-0.18 0.19 -0.83 101 95 73
-1.35 0.92 -7.91 171 170 149
11.96 8.34 71.21 84 76 53
-31.29 46.37 -177.13 135 127 104
26.56 -23.30 142.42 161 151 124
-35.89 57.46 -183.85 158 150 129
-0.01 -0.01 0.01 110 98 72
12.25 12.85 58.91 132 121 91
-6.89 3.15 -33.17 180 178 153
-23.78 20.47 -112.89 79 67 41
-0.17 -0.12 -0.43 181 164 138
-31.21 2.07 -140.19 121 119 94
-19.10 30.71 -80.42 160 154 130
15.11 7.84 62.12 132 125 97
15.11 7.84 62.12 132 125 97
-0.21 -0.02 -0.75 132 125 97
-0.20 0.16 -0.73 93 82 62
48.33 23.07 178.78 137 128 99
48.33 23.07 178.78 137 128 99
-0.02 -0.02 -0.41 168 161 133
-0.38 -0.05 -1.45 192 190 169
-0.22 0.02 -0.74 192 190 169
-0.25 0.24 -1.12 176 174 153
-0.23 0.20 -0.90 109 102 83
-0.12 -0.05 -0.68 163 157 135
-0.27 -0.07 -1.25 163 157 135
-24.62 18.53 -81.29 145 135 108
-24.62 18.53 -81.29 145 135 108
-0.21 0.07 -0.84 139 138 117
-0.16 -0.02 -0.27 189 172 146
0.89 0.03 2.72 189 187 166
30.12 21.02 96.41 160 145 114
-1.08 -0.44 -3.03 160 145 114
-12.41 5.33 -38.49 135 127 104
-13.81 15.03 -41.51 90 78 56
-0.22 -0.03 -0.50 176 165 137
-0.19 0.11 -0.47 109 98 76
-0.34 -0.20 -1.37 161 150 122
1.35 0.59 3.02 161 150 122
-10.81 10.91 -30.38 77 66 44
0.94 0.04 2.41 187 186 166
-0.26 0.00 -0.68 187 186 166
0.14 0.04 0.16 164 150 123
-0.15 0.14 -0.43 130 123 104
-0.11 0.14 -0.44 158 156 135
-3.18 2.67 -7.79 96 88 67
-0.08 0.00 -0.18 184 183 162
-0.27 -0.08 -0.52 181 169 143
-0.16 0.14 -0.42 133 125 104
29.31 26.19 73.80 149 127 103
29.31 26.19 73.80 149 127 103
-0.25 0.00 -0.59 167 166 146
-13.61 -2.25 -33.79 167 166 146
-0.26 0.03 -0.89 167 166 146
-1468.52 -587.33 -3721.42 172 170 149
36.14 28.29 89.77 156 142 115
36.14 28.29 89.77 156 142 115
-0.29 0.05 -0.78 147 136 114
-0.02 -0.04 -0.20 147 136 114
-0.26 0.05 -0.61 169 167 146
-0.27 0.09 -0.77 181 176 156
-0.26 0.10 -0.67 88 81 63
-0.28 0.00 -0.65 171 169 144
0.59 0.16 1.09 171 169 144
-28.24 -2.83 -62.35 118 112 90
-0.28 0.01 -0.60 118 112 90
-159.85 -72.16 -351.37 140 133 114
-0.21 0.11 -0.43 106 100 84
-10.11 6.14 -21.38 147 141 119
-0.27 0.18 -0.62 164 153 131
-19.92 15.84 -41.17 83 76 60
-0.31 0.13 -0.63 147 139 120
-0.30 0.11 -0.65 73 70 55
0.36 0.34 0.91 174 167 148
-0.32 0.01 -0.93 174 173 155
0.61 0.13 -1.99 166 167 151
-0.24 -0.14 0.29 116 109 91
-0.54 0.61 1.46 169 158 136
0.21 -0.07 -1.12 169 158 136
-0.07 0.13 0.18 174 171 152
0.07 -0.04 -0.17 171 168 149
-0.35 -0.27 0.74 87 79 56
-7.46 1.10 18.58 119 109 82
0.11 -0.02 -0.28 168 170 156
-0.68 0.08 1.55 95 87 66
0.15 0.04 -0.34 132 124 105
0.12 -0.05 -0.37 163 159 134
-0.18 -0.14 0.23 152 144 123
0.16 0.03 -0.38 107 107 95
-0.08 0.14 -0.14 142 139 122
0.15 -0.04 -0.36 145 148 117
-0.15 -0.23 0.38 158 155 136
15.89 3.53 -39.76 128 121 102
-0.10 -0.15 -0.35 120 107 90
14.69 1.35 -37.53 130 131 113
43.14 -27.63 -110.85 145 138 119
23.90 -11.25 -62.33 174 172 151
14.60 1.04 -38.71 167 166 146
-1.87 0.01 5.21 161 158 141
13.77 8.14 -37.59 143 138 118
12.07 6.24 -33.81 157 154 135
17.16 -5.45 -47.91 118 112 90
11.21 5.17 -32.03 157 156 138
0.13 0.09 -0.39 157 156 138
0.94 -0.18 -3.20 156 148 127
13.76 0.04 -39.71 153 145 122
14.42 -4.59 -42.62 168 171 152
9.78 2.50 -29.86 157 155 134
40.81 -32.06 -126.68 192 190 165
8.83 4.42 -28.41 129 126 107
-0.02 0.03 0.07 175 172 155
8.09 7.95 -26.41 159 156 137
8.09 7.95 -26.41 159 156 137
-0.17 -0.01 0.14 172 169 150
40.54 -39.75 -139.89 136 125 105
1.41 0.73 -5.64 129 118 96
7.72 0.98 -27.12 129 118 96
-2.01 -0.94 7.59 150 149 131
0.14 -0.06 -0.36 166 159 141
0.11 0.02 -0.56 151 143 124
4.98 5.19 -20.88 141 124 106
-1101.26 1352.81 4595.42 176 168 147
5.07 1.54 -22.15 121 114 95
3.97 4.48 -17.89 78 57 40
4.32 4.70 -19.87 153 142 120
4.00 3.32 -18.67 140 129 109
3.94 6.69 -18.96 221 222 208
98.52 -139.25 -531.66 179 171 148
0.45 0.49 -2.65 119 107 85
3.48 7.48 -21.39 48 47 26
-20.13 43.65 132.97 198 188 161
-0.12 -0.05 -0.41 198 188 161
-20.13 43.65 132.97 198 188 161
0.08 0.14 -0.51 82 70 48
1.99 2.66 -14.17 156 153 134
0.33 0.26 -2.42 157 149 130
0.32 0.52 -2.24 99 93 71
0.06 0.09 -0.39 99 93 71
0.07 -0.00 -0.20 194 180 153
-0.03 -0.08 -0.17 194 180 153
-19.15 46.94 153.90 155 143 119
1.13 3.37 -9.05 46 47 41
0.14 0.50 -3.30 111 109 84
0.08 0.07 -1.97 111 109 84
-11.66 35.39 109.87 179 168 140
-13.25 35.74 130.72 185 179 157
8.42 -8.33 -86.77 83 73 61
3.57 3.52 -40.44 199 201 180
0.01 0.00 -0.63 199 201 180
3.57 3.52 -40.44 199 201 180
4.82 -1.40 -60.41 170 165 136
3.26 -0.42 -44.94 78 67 39
-9.77 28.97 151.65 166 160 136
-14.43 48.88 218.67 169 167 146
-8.67 43.98 157.04 113 99 73
-12.51 58.56 249.54 121 114 95
-12.51 58.56 249.54 121 114 95
3.14 7.90 -72.55 192 191 170
-3.94 23.34 90.73 219 217 196
-0.07 -0.05 -0.38 75 57 33
2.52 22.75 -73.58 142 142 118
2.52 22.75 -73.58 142 142 118
-3.18 30.62 118.93 103 92 70
1.35 23.34 -76.47 206 210 195
0.03 -0.16 -1.86 192 200 177
0.44 30.61 -147.19 187 189 167
-1.69 24.77 -113.10 129 114 85
-1.69 24.77 -113.10 129 114 85
-3.49 49.37 -148.19 194 198 183
0.00 0.03 0.13 207 210 191
-8.27 43.45 -128.88 190 191 173
-45.36 195.39 -642.56 128 122 100
-45.36 195.39 -642.56 128 122 100
11.00 -31.64 125.96 87 85 60
4.17 16.18 48.84 121 110 88
21.30 14.71 240.21 156 149 121
21.30 14.71 240.21 156 149 121
90.56 -158.93 982.82 91 85 61
-0.05 0.05 -0.50 91 85 61
-9.18 11.32 -97.24 98 93 64
44.33 46.77 463.93 204 208 193
-6.56 6.43 -63.25 203 201 176
-6.56 6.43 -63.25 203 201 176
9.21 14.10 86.79 86 80 56
9.21 14.10 86.79 86 80 56
11.80 -22.52 104.00 107 105 80
-0.12 0.12 -0.92 186 188 166
-0.08 -1.22 -4.39 200 187 168
0.06 0.00 -0.07 200 187 168
-16.49 34.42 -123.69 183 186 167
3.97 -2.73 27.83 178 185 169
5.25 3.99 34.75 191 184 156
-1180.60 1446.78 -7320.14 165 168 137
-14.89 -17.79 -60.85 185 177 154
0.00 -0.07 -0.27 185 177 154
-6.48 3.07 -34.28 77 64 45
-6.48 3.07 -34.28 77 64 45
-6.48 3.07 -34.28 77 64 45
21.55 3.97 111.19 94 86 63
21.55 3.97 111.19 94 86 63
-0.16 -0.05 -0.95 207 206 185
-0.20 -0.06 -0.80 215 209 185
-0.21 -0.13 -0.58 184 169 148
-11.44 10.56 -58.83 178 166 140
-0.16 -0.03 -0.64 165 163 138
-0.19 0.13 -1.01 149 141 118
-7.17 2.61 -31.80 126 118 95
0.28 -0.31 0.89 89 77 55
-24.65 27.90 -96.50 156 157 139
-0.21 0.19 -1.01 158 156 131
-0.44 0.02 -1.61 153 152 131
-0.24 -0.04 -0.67 142 135 107
21.14 17.31 64.20 176 164 138
-0.26 0.01 -1.00 184 183 163
-11.35 4.30 -32.34 161 160 139
-0.10 -0.08 -0.58 181 175 153
-0.21 -0.07 -0.49 181 175 153
-1.29 0.40 -3.61 167 165 144
-0.21 0.14 -0.73 167 165 144
-0.25 0.13 -0.64 165 159 137
-13.84 4.66 -36.57 174 173 153
-0.41 -0.36 -1.64 181 169 143
-15.02 8.17 -38.61 119 111 88
-15.02 8.17 -38.61 119 111 88
-0.27 -0.00 -0.70 190 191 173
-0.28 0.13 -0.75 169 167 146
-1.92 0.48 -4.76 169 167 146
-0.25 0.08 -0.74 177 179 158
-3.23 3.27 -8.73 98 90 69
-37.36 -2.48 -87.73 180 179 159
-20.97 -1.87 -44.97 167 164 145
0.17 0.01 -0.36 164 168 154
-0.04 -0.12 -0.19 164 165 147
-0.28 0.16 0.56 191 192 174
0.09 -0.11 -0.32 125 123 102
-0.03 0.18 0.20 116 104 80
-0.01 0.11 0.10 188 185 166
-0.23 -0.26 0.53 156 149 130
18.82 -3.01 -48.11 165 158 139
17.69 -4.24 -45.15 104 92 66
32.50 -19.09 -83.53 178 177 156
17.63 -3.99 -46.86 149 143 119
-0.01 -0.15 -0.74 216 207 190
13.69 0.98 -38.44 166 160 138
24.73 -15.60 -69.62 169 166 147
10.26 7.39 -29.31 83 64 49
0.02 0.08 -0.14 83 64 49
-0.35 -0.23 0.98 83 64 49
0.06 -0.05 -0.35 147 140 122
1.34 1.01 -5.55 148 142 120
-0.08 -0.05 0.02 156 154 133
13.30 -3.64 -43.75 183 177 153
7.63 4.02 -26.02 156 149 131
-0.00 0.12 -0.01 99 97 76
6.66 2.55 -23.61 47 40 24
6.66 2.55 -23.61 47 40 24
27.83 -24.19 -98.27 141 130 102
-0.32 -0.76 1.66 139 137 122
6.71 1.00 -26.49 126 118 97
9.44 -1.33 -37.95 190 184 162
4.74 2.87 -20.05 149 141 120
11.52 -4.69 -48.99 154 146 123
-765.02 1022.71 3397.17 184 182 157
-0.03 0.11 -0.28 159 151 128
0.11 -0.07 -0.43 171 159 133
0.01 -0.07 -0.99 171 159 133
489.59 -545.71 -2350.56 171 159 133
-0.01 -0.11 -0.31 171 159 133
92.51 -128.75 -446.65 160 152 129
92.51 -128.75 -446.65 160 152 129
7.48 -0.26 -39.16 132 124 101
5.98 1.65 -32.74 187 189 167
7.42 -3.53 -40.65 138 130 107
5.29 0.44 -29.49 177 176 155
4.85 0.97 -27.97 199 201 179
1.02 0.11 -6.04 199 201 179
0.04 0.15 -0.61 183 191 167
0.00 -0.08 -0.84 179 163 137
1.92 2.27 -13.41 90 78 64
0.03 0.05 -0.24 203 218 199
3.71 7.48 -37.09 199 200 186
11.36 -14.43 -137.61 189 201 181
0.50 1.75 -4.89 45 46 40
3.45 9.03 -42.53 148 151 132
5.46 -3.67 -68.07 155 144 116
3.30 6.52 -45.08 151 155 138
-7.48 33.06 98.79 164 148 122
-7.48 33.06 98.79 164 148 122
-0.08 0.03 -0.03 77 77 53
21.52 -56.30 -350.93 90 78 52
0.14 0.59 -2.08 198 200 178
-0.06 0.09 -0.85 218 218 192
6.56 -24.24 -152.12 162 150 124
0.06 0.24 -1.74 190 197 181
3.15 -7.15 -110.43 218 220 198
1.67 0.37 -80.14 127 113 86
2.23 -4.25 -99.51 90 70 35
2.23 -4.25 -99.51 90 70 35
0.05 -0.00 -0.28 170 180 155
0.70 -14.72 -180.26 114 108 84
0.70 -14.72 -180.26 114 108 84
-0.06 1.02 2.87 174 162 140
-1.37 1.07 -20.49 152 150 125
35.47 65.43 502.01 70 52 38
-0.18 -0.15 -0.67 185 177 158
25.01 -60.87 232.29 101 100 80
9.17 3.47 69.18 181 179 158
14.52 9.71 107.80 175 177 156
14.52 9.71 107.80 175 177 156
-0.19 -0.15 -1.12 178 167 139
-787.36 1060.13 -5508.23 65 54 34
-10.75 8.52 -74.66 60 47 28
-10.75 8.52 -74.66 60 47 28
8.22 11.79 56.20 90 79 51
8.22 11.79 56.20 90 79 51
-0.17 -0.06 -0.81 177 176 155
8.13 10.86 48.90 196 186 159
-95.65 94.55 -561.65 78 68 41
-28.37 30.47 -155.46 97 86 58
17.81 8.76 96.38 130 122 99
12.66 18.21 60.36 179 158 131
-5.88 3.13 -27.69 117 107 80
-0.20 0.20 -0.71 159 160 142
-0.20 0.14 -0.92 173 168 146
15.71 13.74 62.40 127 116 88
-21.43 17.98 -72.86 154 146 125
-0.25 -0.04 -1.03 167 165 140
18.01 20.16 58.11 152 127 97
-13.67 3.03 -43.95 201 200 179
-13.67 3.03 -43.95 201 200 179
-0.15 0.02 -0.67 171 169 146
-0.23 0.02 -0.72 171 169 146
-0.10 -0.03 -0.26 193 192 172
-0.10 0.02 -0.29 131 123 102
-15.02 1.37 -41.62 185 184 164
-15.02 1.37 -41.62 185 184 164
-16.56 2.69 -40.31 190 188 167
-11.31 8.69 -27.24 91 83 62
-16.90 1.64 -40.88 160 158 137
-344.14 -130.66 -808.36 199 198 178
-13.51 9.37 -30.42 91 83 64
4.25 1.48 -9.84 164 155 138
-0.22 -0.34 0.54 172 172 162
0.03 0.14 -0.17 130 122 103
-1.47 -1.38 3.53 175 176 160
-1.65 -0.27 3.77 167 159 146
-0.80 -0.25 1.86 119 108 86
-3.67 -0.57 8.86 162 161 143
-1.08 0.04 2.46 117 109 88
0.12 0.04 -0.25 152 144 123
14.98 13.06 -37.99 179 177 164
15.67 -0.73 -41.71 151 145 123
15.61 -2.41 -42.14 103 96 68
-0.33 -0.14 0.76 150 151 135
13.99 -2.27 -41.00 174 168 146
0.11 -0.01 -0.23 181 180 162
7.88 3.10 -25.69 144 141 122
17.88 -13.94 -67.83 148 133 104
12.93 -4.78 -54.01 163 155 132
4.80 7.90 -21.24 52 50 37
4.01 6.79 -19.26 172 173 159
4.34 2.38 -36.15 186 188 166
-0.09 0.07 0.42 199 191 168
0.11 0.30 -1.74 75 73 48
-0.39 0.13 4.24 211 205 179
3.50 2.04 -37.88 107 100 74
3.92 10.92 -43.98 220 224 207
0.17 1.99 -6.43 201 206 186
3.11 11.25 -53.64 201 209 194
0.06 0.24 -1.74 190 197 181
-1.83 48.10 -158.37 181 186 166
5.73 20.68 314.08 172 174 150
-1.08 4.04 -46.04 153 151 126
-0.01 0.10 -0.53 169 168 147
-0.07 0.13 -0.57 169 168 147
-32.43 164.73 -595.98 226 236 225
-9.04 32.00 -155.24 123 117 93
-9.04 32.00 -155.24 123 117 93
-28.37 -22.96 -419.07 132 118 89
6.30 16.16 85.26 184 188 173
-38.51 146.28 -453.05 165 168 147
-0.11 0.07 -1.13 142 135 107
9.44 -22.06 94.36 155 163 150
9.44 -22.06 94.36 155 163 150
4.26 13.61 43.39 179 168 146
10.91 5.69 94.72 79 65 39
-0.19 0.04 -1.11 73 64 35
1.04 3.31 9.32 190 178 152
-2.74 1.82 -15.63 154 153 132
-0.17 -0.02 -0.75 97 89 66
-42.45 63.21 -168.38 148 144 119
-12.52 1.06 -50.83 204 202 177
-11.71 2.60 -45.73 175 174 153
-163.54 -22.84 -593.97 175 174 153
-0.23 -0.11 -1.13 193 186 158
-12.62 12.51 -44.56 166 168 144
-10.51 6.59 -37.34 194 189 169
-15.02 4.81 -51.61 164 163 142
0.01 -0.07 -0.19 165 150 121
0.01 -0.07 -0.19 165 150 121
0.49 -0.66 1.82 143 135 114
-171.35 -31.12 -512.24 189 193 176
-15.71 2.76 -44.33 178 177 156
-15.71 2.76 -44.33 178 177 156
-15.44 6.01 -39.87 147 140 121
-15.44 6.01 -39.87 147 140 121
-16.40 1.59 -41.92 139 133 111
-16.40 1.59 -41.92 139 133 111
-3.72 -0.23 -9.37 182 181 161
3.00 -1.89 8.43 169 157 131
-80.76 -24.13 -201.99 168 169 151
-14.35 4.81 -34.98 163 157 135
-10.13 6.76 -23.48 139 132 113
-1.00 -0.35 -2.58 162 170 159
-15.93 5.58 -36.23 166 158 135
-1.24 -0.17 2.60 35 27 14
-0.30 -0.17 0.63 161 160 142
-0.04 -0.08 -0.06 115 107 86
-1.85 -1.89 4.93 175 173 160
2.44 2.49 -7.48 146 144 131
7.45 5.35 -24.65 159 158 140
6.63 3.69 -24.93 128 126 105
6.63 3.69 -24.93 128 126 105
4.86 4.70 -20.52 149 138 118
4.86 4.70 -20.52 149 138 118
6.15 -3.85 -51.51 187 185 160
7.12 32.94 -109.10 190 193 174
2.42 7.54 -42.80 197 204 188
4.87 -5.38 -88.28 136 111 80
1.99 -1.00 -59.82 193 196 169
1.11 13.89 -57.46 207 214 198
-0.08 0.12 -0.88 198 203 183
1.40 32.34 120.94 179 169 144
-2.44 3.92 -41.52 125 119 95
12.23 1.71 133.66 185 193 182
-8.12 7.57 -83.30 178 186 165
10.60 -24.61 105.21 172 179 163
10.60 -24.61 105.21 172 179 163
41.35 -114.75 359.72 90 77 58
41.35 -114.75 359.72 90 77 58
6.63 11.54 56.77 208 207 186
12.18 -15.78 96.32 174 177 156
-0.19 0.04 -1.11 73 64 35
-19.44 32.10 -105.91 148 146 125
-19.44 32.10 -105.91 148 146 125
10.77 8.51 56.96 184 184 160
17.63 16.76 79.67 154 139 106
-17.04 1.39 -69.14 204 202 177
-0.06 -0.04 -0.18 177 169 146
25.40 24.53 74.23 183 172 144
0.00 -0.03 -0.09 157 155 130
0.02 0.10 0.11 157 155 130
43.51 30.27 107.35 182 181 161
2.85 0.72 5.43 174 169 147
-11.14 5.83 -23.73 151 143 122
-0.29 0.10 -0.72 186 187 171
0.17 0.06 -0.38 164 161 142
-0.87 0.09 1.46 164 161 142
-0.14 -0.10 -0.07 178 176 153
-0.09 -0.13 -0.22 184 181 166
12.54 5.62 -33.64 152 151 133
-27.75 -31.23 81.00 54 61 53
16.21 -5.20 -50.57 175 175 149
11.59 -1.46 -46.48 172 166 144
15.52 -14.29 -76.79 135 123 97
-45.84 74.73 239.38 173 167 143
-45.84 74.73 239.38 173 167 143
5.82 1.90 -46.32 173 180 164
0.03 0.04 -0.25 211 216 194
2.95 0.78 -33.40 107 93 66
868.59 -2123.02 -16920.51 83 65 41
-3.97 47.26 -180.41 154 152 127
5.13 38.77 217.57 187 189 168
-15.69 -43.26 -314.56 97 76 59
3.57 16.60 69.88 183 186 167
170.36 -292.14 1054.14 101 90 68
-5.18 10.82 -29.41 172 171 151
10.23 -16.74 46.63 96 84 62
-6.77 -4.94 -28.06 206 205 184
15.82 4.22 50.99 204 208 191
-0.16 -0.05 -0.54 204 208 191
-0.11 0.09 0.29 144 142 121
-0.05 -0.08 -0.04 96 90 68
13.42 2.30 -37.77 152 151 131
0.02 0.15 0.09 145 131 105
-0.13 0.15 0.48 139 122 96
-0.70 1.74 4.57 139 122 96
0.03 0.17 -1.13 108 97 75
14.68 -24.03 -132.51 174 172 147
0.25 5.05 -52.05 84 70 44
-1.53 2.18 -54.92 187 192 170
9.02 8.08 76.25 133 134 116
19.63 5.84 103.01 126 118 95
-10.86 10.70 -53.34 98 87 59
36.18 -58.79 165.58 98 86 64
-16.73 15.58 -52.44 87 73 47
95.90 58.99 259.99 205 203 178
-10.18 5.90 -23.80 89 74 53
-10.18 5.90 -23.80 89 74 53
-0.29 0.13 -0.59 152 144 123
0.14 -0.09 -0.38 99 96 77
-64.33 52.26 174.30 139 131 110
11.39 12.29 -36.59 114 112 99
15.90 29.27 97.86 171 169 148
15.90 29.27 97.86 171 169 148
-19.45 23.81 -72.01 150 151 133
-12.46 8.88 -33.70 165 163 140
17.05 8.75 -48.84 131 128 109
-0.19 0.10 -0.98 139 137 112
-0.08 -0.14 -0.40 155 144 124
-0.33 -0.25 0.72 111 99 73
0.13 0.16 -0.45 111 99 73
14.95 -14.67 -68.53 155 144 116
-3.80 -24.80 85.21 185 185 159
-0.66 -0.05 -31.49 181 184 165
4.88 28.79 138.00 170 168 147
15.58 -15.86 82.07 115 104 76
-0.18 0.14 -0.85 115 104 76
39.66 22.89 100.07 146 145 124
6.24 2.22 -38.60 174 169 137
-0.98 -0.61 -2.78 175 152 120
3.01 2.46 -13.40 137 118 101
0.28 2.47 -9.58 170 177 159
